# .PCD v0.7 - Point Cloud Data file format
VERSION 0.7
FIELDS x y z rgba
SIZE 4 4 4 4
TYPE F F F U
COUNT 1 1 1 1
WIDTH 1206
HEIGHT 1
VIEWPOINT 0 0 0 1 0 0 0
POINTS 1206
DATA ascii
0.42322794 -0.49586087 1.5433625 192002
0.42602158 -0.49586105 1.5433629 190466
0.42881528 -0.49586105 1.5433631 189186
0.43160892 -0.49586117 1.5433633 122113
0.43440261 -0.49586129 1.5433635 120577
0.43719628 -0.49586135 1.5433639 119041
0.43998992 -0.49586153 1.5433642 117761
0.44278359 -0.49586153 1.5433645 116225
0.44557723 -0.49586159 1.5433645 114689
0.44837087 -0.49586177 1.5433649 113153
0.4511646 -0.49586183 1.5433654 3912480
0.35245547 -0.50782329 1.5895505 111873
0.35243627 -0.50368404 1.5765941 184322
0.35241741 -0.49961168 1.5638468 190722
0.35239878 -0.49560452 1.551304 260867
0.35238054 -0.49166113 1.5389609 327428
0.35494885 -0.49136025 1.5380192 327428
0.35773271 -0.49136013 1.5380191 327428
0.36051664 -0.49136013 1.5380191 327428
0.36330047 -0.49136019 1.5380189 327428
0.36608443 -0.49136019 1.5380188 327428
0.36886829 -0.49136013 1.5380188 327428
0.37165219 -0.49136013 1.5380189 327428
0.37443605 -0.49136001 1.5380186 327428
0.37721995 -0.49136001 1.5380186 327428
0.38000387 -0.49135995 1.5380185 327428
0.38278773 -0.49136007 1.5380185 327428
0.38557166 -0.49136007 1.5380183 327428
0.38835549 -0.49135989 1.5380182 327428
0.39113945 -0.49135995 1.5380182 327428
0.39392331 -0.49135989 1.538018 327428
0.39670721 -0.49135995 1.5380181 327428
0.39949107 -0.49135983 1.538018 261891
0.402275 -0.49135983 1.538018 261891
0.40505886 -0.49135983 1.5380177 261891
0.40784276 -0.49135983 1.5380177 261891
0.41062674 -0.49135983 1.538018 261891
0.41341069 -0.49135995 1.5380182 261891
0.41619468 -0.49136001 1.5380185 261891
0.41897869 -0.49136019 1.5380189 261891
0.42176265 -0.49136013 1.5380191 195842
0.42454663 -0.49136031 1.5380193 194562
0.42733064 -0.49136043 1.5380197 193026
0.43011463 -0.49136055 1.5380199 191746
0.43289861 -0.4913606 1.5380201 190466
0.43568259 -0.4913606 1.5380204 188930
0.43846655 -0.49136072 1.5380206 187394
0.44125053 -0.49136084 1.5380208 120321
0.44403455 -0.49136084 1.5380211 119041
0.44681853 -0.49136108 1.5380213 117505
0.44960257 -0.4913612 1.538022 115969
0.35245267 -0.50494206 1.5895379 110849
0.35243347 -0.5008263 1.5765816 183554
0.35241464 -0.496777 1.5638347 189698
0.35239607 -0.49279267 1.5512919 260099
0.35237783 -0.48887169 1.538949 327428
0.35372439 -0.48689097 1.5327137 327428
0.35649866 -0.48689091 1.5327134 327428
0.35927296 -0.48689097 1.5327134 327428
0.36204723 -0.48689091 1.5327134 327428
0.36482152 -0.48689085 1.5327134 327428
0.36759579 -0.48689067 1.5327132 327428
0.37037009 -0.48689079 1.5327133 327428
0.37314436 -0.48689085 1.5327132 327428
0.37591869 -0.48689079 1.5327131 327428
0.37869298 -0.48689061 1.5327129 327428
0.38146728 -0.48689073 1.5327129 327428
0.38424155 -0.48689073 1.5327128 327428
0.38701588 -0.48689079 1.5327129 327428
0.38979015 -0.48689061 1.5327127 327428
0.39256439 -0.48689061 1.5327125 327428
0.39533865 -0.48689061 1.5327125 327428
0.39811292 -0.48689055 1.5327125 327428
0.40088728 -0.48689055 1.5327125 327428
0.40366155 -0.48689055 1.5327122 327428
0.40643585 -0.48689055 1.5327122 261891
0.40921012 -0.48689044 1.5327122 261891
0.41198444 -0.48689044 1.5327121 261891
0.41475868 -0.48689038 1.532712 261891
0.41753307 -0.48689055 1.5327122 261891
0.4203074 -0.48689055 1.5327123 261891
0.42308185 -0.48689067 1.5327128 261891
0.42585617 -0.48689067 1.5327129 261891
0.42863056 -0.48689079 1.5327132 195074
0.43140495 -0.48689097 1.5327134 193794
0.43417937 -0.48689091 1.5327139 192514
0.43695375 -0.48689109 1.532714 191234
0.43972811 -0.48689127 1.5327144 189698
0.4425025 -0.48689121 1.5327146 188418
0.44527689 -0.48689139 1.5327148 186882
0.4480513 -0.48689151 1.5327152 119809
0.45082572 -0.48689163 1.5327156 118529
0.35244983 -0.50206089 1.5895252 109569
0.3524307 -0.49796867 1.576569 182530
0.35241187 -0.49394256 1.5638223 188930
0.35239336 -0.48998094 1.5512799 259075
0.35237506 -0.48608232 1.538937 327428
0.35250834 -0.48245233 1.5274444 327428
0.35527313 -0.48245227 1.5274444 327428
0.35803789 -0.48245233 1.5274442 327428
0.36080262 -0.48245227 1.5274441 327428
0.36356738 -0.48245239 1.5274444 327428
0.36633211 -0.48245221 1.5274439 327428
0.36909688 -0.48245221 1.5274439 327428
0.37186158 -0.48245215 1.5274439 392965
0.37462637 -0.48245215 1.5274439 392965
0.37739113 -0.48245209 1.5274438 392965
0.38015589 -0.48245215 1.5274439 392965
0.38292062 -0.48245203 1.5274436 392965
0.38568541 -0.48245209 1.5274436 392965
0.38845012 -0.48245203 1.5274435 392965
0.39121491 -0.48245209 1.5274435 327428
0.39397961 -0.48245198 1.5274433 327428
0.39674437 -0.48245203 1.5274433 327428
0.3995091 -0.48245198 1.5274432 327428
0.40227389 -0.48245198 1.5274432 327428
0.40503863 -0.48245198 1.5274432 327428
0.40780336 -0.48245186 1.5274429 327428
0.41056812 -0.48245186 1.5274429 327428
0.41333288 -0.4824518 1.5274429 327428
0.41609764 -0.4824518 1.5274429 261891
0.41886237 -0.48245186 1.5274427 261891
0.4216271 -0.4824518 1.5274427 261891
0.42439193 -0.4824518 1.5274428 261891
0.42715678 -0.48245192 1.5274431 261891
0.4299216 -0.48245198 1.5274433 261891
0.43268648 -0.48245209 1.5274436 261123
0.4354513 -0.48245209 1.5274438 194306
0.43821618 -0.48245239 1.5274444 193026
0.44098103 -0.48245233 1.5274444 191490
0.44374585 -0.48245251 1.5274448 190210
0.44651073 -0.48245251 1.5274451 188930
0.44927561 -0.48245269 1.5274454 187394
0.4520404 -0.48245269 1.5274456 4116517
0.35244703 -0.49917984 1.5895126 108289
0.3524279 -0.49511099 1.5765564 181250
0.35240906 -0.491108 1.56381 187650
0.35239062 -0.48716927 1.5512679 258051
0.35237238 -0.48329312 1.5389252 326660
0.35235441 -0.47947812 1.5267775 327428
0.35405594 -0.47804409 1.5222113 327428
0.35681126 -0.47804409 1.5222113 327428
0.35956651 -0.47804409 1.5222113 327428
0.36232185 -0.47804415 1.5222113 327428
0.36507708 -0.47804403 1.5222112 327428
0.36783236 -0.47804403 1.5222111 392965
0.37058762 -0.47804403 1.5222111 392965
0.37334293 -0.47804397 1.5222108 392965
0.37609819 -0.47804397 1.5222108 392965
0.37885347 -0.47804397 1.5222108 392965
0.38160875 -0.47804391 1.5222106 392965
0.38436404 -0.47804385 1.5222106 392965
0.38711932 -0.47804385 1.5222106 392965
0.38987461 -0.47804385 1.5222106 392965
0.39262986 -0.47804385 1.5222104 392965
0.39538515 -0.47804385 1.5222104 392965
0.39814043 -0.47804385 1.5222104 392965
0.40089571 -0.47804391 1.5222104 327428
0.403651 -0.47804374 1.5222101 327428
0.40640628 -0.47804374 1.5222102 327428
0.40916154 -0.47804362 1.5222099 327428
0.41191685 -0.47804362 1.5222099 327428
0.41467208 -0.47804368 1.5222099 327428
0.41742736 -0.47804362 1.5222098 327428
0.42018262 -0.47804362 1.5222096 327428
0.4229379 -0.47804368 1.5222095 261891
0.42569318 -0.47804362 1.5222096 261891
0.42844844 -0.4780435 1.5222094 261891
0.43120381 -0.47804368 1.5222096 261891
0.43395922 -0.47804368 1.5222099 261891
0.43671459 -0.47804379 1.5222104 261123
0.43946993 -0.47804379 1.5222105 259843
0.44222528 -0.47804391 1.5222106 193026
0.44498068 -0.47804403 1.522211 191746
0.44773602 -0.47804415 1.5222113 190466
0.45049143 -0.47804421 1.5222116 189186
0.3524636 -0.50041103 1.6026704 7905092
0.35244423 -0.49629879 1.5895 106753
0.35242516 -0.49225348 1.576544 114433
0.35240635 -0.48827368 1.5637977 186370
0.35238785 -0.48435766 1.5512559 256771
0.35236967 -0.48050398 1.5389135 325380
0.35235175 -0.47671092 1.5267658 326916
0.3528471 -0.47366613 1.517014 327428
0.355593 -0.47366613 1.517014 327428
0.35833883 -0.47366601 1.5170138 327428
0.36108473 -0.47366607 1.5170139 327428
0.36383057 -0.47366595 1.5170138 392965
0.36657646 -0.47366595 1.5170138 392965
0.36932233 -0.47366589 1.5170135 392965
0.37206817 -0.47366589 1.5170135 392965
0.37481406 -0.47366589 1.5170134 392965
0.37755996 -0.47366583 1.5170134 392965
0.38030583 -0.47366589 1.5170133 392965
0.38305169 -0.47366583 1.5170133 392965
0.38579756 -0.47366589 1.5170133 392965
0.38854346 -0.47366583 1.5170133 392965
0.39128932 -0.47366577 1.5170131 392965
0.39403519 -0.47366583 1.5170131 392965
0.396781 -0.47366577 1.5170128 392965
0.39952692 -0.47366565 1.5170127 392965
0.40227276 -0.47366571 1.5170127 392965
0.40501866 -0.47366577 1.5170128 392965
0.40776452 -0.4736656 1.5170126 327428
0.41051042 -0.4736656 1.5170126 327428
0.41325626 -0.47366554 1.5170125 327428
0.41600215 -0.47366554 1.5170125 327428
0.41874799 -0.47366554 1.5170124 327428
0.42149386 -0.47366548 1.5170124 327428
0.42423975 -0.47366548 1.5170122 327428
0.42698562 -0.47366548 1.5170121 261891
0.42973149 -0.47366548 1.5170121 261891
0.4324773 -0.47366536 1.5170119 261891
0.43522322 -0.47366542 1.5170119 261891
0.43796915 -0.47366554 1.5170121 261891
0.4407151 -0.47366548 1.5170124 260867
0.44346106 -0.4736656 1.5170126 259587
0.44620702 -0.47366571 1.5170127 192770
0.448953 -0.47366583 1.5170132 186370
0.45169902 -0.47366589 1.5170135 4116519
0.35246077 -0.49750614 1.6026573 3968290
0.3524414 -0.49341768 1.5894871 39680
0.3524223 -0.48939598 1.5765315 112897
0.35240358 -0.48543918 1.5637856 185090
0.35238513 -0.48154593 1.5512437 255491
0.35236692 -0.4777146 1.5389016 323844
0.35234901 -0.47394377 1.5267541 325636
0.35233146 -0.47023201 1.514797 326404
0.35438299 -0.46931773 1.5118523 327172
0.35711953 -0.46931779 1.5118523 327428
0.3598561 -0.46931779 1.511852 327428
0.36259261 -0.46931785 1.511852 327428
0.36532909 -0.46931773 1.5118518 392965
0.36806563 -0.46931762 1.5118517 392965
0.37080216 -0.46931762 1.5118517 392965
0.37353867 -0.46931767 1.5118515 392965
0.37627521 -0.46931762 1.5118515 392965
0.37901175 -0.46931756 1.5118514 392965
0.38174829 -0.46931756 1.5118513 392965
0.38448483 -0.4693175 1.5118513 392965
0.38722137 -0.4693175 1.5118513 392965
0.38995785 -0.4693175 1.5118512 392965
0.39269441 -0.46931744 1.5118511 392965
0.39543089 -0.4693175 1.5118511 392965
0.39816743 -0.46931738 1.5118511 392965
0.40090394 -0.46931732 1.5118508 392965
0.40364048 -0.46931738 1.5118508 392965
0.40637699 -0.46931732 1.5118506 392965
0.40911359 -0.46931738 1.5118507 392965
0.41185009 -0.46931738 1.5118506 327428
0.4145866 -0.46931744 1.5118506 327428
0.41732311 -0.46931732 1.5118505 327428
0.42005965 -0.46931726 1.5118504 327428
0.42279616 -0.46931726 1.5118504 327428
0.4255327 -0.46931714 1.5118504 327428
0.42826921 -0.46931714 1.5118502 327428
0.43100581 -0.46931714 1.5118502 261891
0.43374228 -0.46931714 1.5118501 261891
0.43647882 -0.46931714 1.5118501 261891
0.4392153 -0.46931714 1.5118499 261891
0.44195184 -0.46931708 1.5118499 261379
0.44468844 -0.46931714 1.5118501 260355
0.44742507 -0.4693172 1.5118504 259331
0.45016173 -0.46931738 1.5118506 258051
0.35245791 -0.49460119 1.6026446 30464
0.35243857 -0.49053675 1.5894746 37888
0.35241953 -0.48653853 1.576519 111105
0.35240081 -0.48260486 1.5637732 183298
0.35238236 -0.47873437 1.5512315 253699
0.35236421 -0.47492546 1.5388896 322308
0.35234636 -0.47117674 1.5267425 324100
0.35232875 -0.4674865 1.5147856 324868
0.35318124 -0.46499902 1.5067253 325380
0.35590851 -0.46499896 1.5067252 326404
0.35863575 -0.46499884 1.506725 327428
0.36136302 -0.4649989 1.5067251 327428
0.36409026 -0.4649989 1.5067251 392965
0.36681753 -0.46499896 1.5067251 392965
0.36954474 -0.46499884 1.5067247 392965
0.37227196 -0.46499878 1.5067248 392965
0.37499923 -0.46499872 1.5067246 392965
0.3777265 -0.46499878 1.5067246 392965
0.38045374 -0.46499872 1.5067246 392965
0.38318098 -0.46499866 1.5067244 392965
0.38590828 -0.46499866 1.5067245 392965
0.38863549 -0.46499866 1.5067241 392965
0.39136273 -0.46499866 1.5067241 392965
0.39408997 -0.4649986 1.5067241 392965
0.39681721 -0.46499866 1.5067241 392965
0.39954448 -0.46499866 1.5067241 392965
0.40227175 -0.46499872 1.5067241 392965
0.40499896 -0.4649986 1.5067239 392965
0.40772623 -0.46499854 1.5067239 392965
0.41045347 -0.46499854 1.5067236 392965
0.41318071 -0.46499848 1.5067236 392965
0.41590792 -0.46499848 1.5067236 327428
0.41863519 -0.46499842 1.5067236 327428
0.42136243 -0.46499854 1.5067234 327428
0.42408967 -0.46499848 1.5067234 327428
0.42681691 -0.46499836 1.5067232 327428
0.42954418 -0.46499842 1.5067233 327428
0.43227142 -0.4649983 1.5067232 327428
0.43499869 -0.46499836 1.5067232 327428
0.4377259 -0.4649983 1.506723 261891
0.44045317 -0.46499825 1.5067229 261891
0.44318038 -0.46499842 1.5067229 261891
0.44590765 -0.46499836 1.5067229 260867
0.44863489 -0.4649983 1.5067228 259843
0.45136222 -0.4649983 1.5067229 4253995
0.35245514 -0.49169642 1.6026318 28672
0.35243577 -0.48765582 1.5894618 36096
0.35241672 -0.48368114 1.5765066 109313
0.35239801 -0.47977054 1.5637608 181506
0.35237959 -0.47592276 1.5512195 251907
0.35236147 -0.4721362 1.5388776 254979
0.35234362 -0.4684096 1.5267308 322308
0.3523261 -0.46474117 1.5147741 323332
0.35299316 -0.46202564 1.505923 324100
0.35571796 -0.46202427 1.5059185 324868
0.35844266 -0.46202278 1.5059137 325892
0.3611674 -0.46202135 1.5059093 327172
0.36389208 -0.46202004 1.5059048 327428
0.36661679 -0.46201873 1.5059005 392965
0.36934149 -0.46201736 1.5058959 392965
0.37206611 -0.46201587 1.5058914 392965
0.37479076 -0.4620145 1.505887 392965
0.37751541 -0.46201319 1.5058825 392965
0.38024002 -0.46201175 1.505878 392965
0.38296458 -0.46201038 1.5058734 392965
0.3856892 -0.46200901 1.5058689 392965
0.38841373 -0.46200764 1.5058644 392965
0.39113829 -0.46200621 1.5058601 392965
0.39386278 -0.46200484 1.5058556 392965
0.39658725 -0.46200353 1.505851 392965
0.39931178 -0.46200216 1.5058466 392965
0.40203628 -0.46200079 1.505842 392965
0.40476075 -0.46199948 1.5058377 392965
0.40748516 -0.46199793 1.5058329 392965
0.41020963 -0.46199667 1.5058286 392965
0.41293398 -0.46199524 1.5058242 392965
0.41565844 -0.46199393 1.5058198 392965
0.41838276 -0.46199238 1.505815 327428
0.42110711 -0.46199113 1.5058105 327428
0.42383146 -0.46198976 1.5058062 327428
0.42655584 -0.46198845 1.5058016 327428
0.42928022 -0.46198708 1.5057973 327428
0.43200448 -0.46198565 1.5057926 327428
0.43472877 -0.46198428 1.5057883 327428
0.43745303 -0.46198285 1.5057837 261891
0.44017726 -0.46198148 1.5057793 261891
0.44290146 -0.46197999 1.5057745 261891
0.44562569 -0.46197873 1.5057702 261123
0.44834995 -0.46197742 1.5057659 260099
0.45107412 -0.46197611 1.5057614 259075
0.35245228 -0.48879164 1.6026189 26624
0.35243297 -0.48477483 1.5894492 34048
0.35241395 -0.4808237 1.576494 107265
0.35239527 -0.47693634 1.5637486 179714
0.35237688 -0.47311139 1.5512074 250115
0.35235879 -0.46934724 1.5388659 253187
0.35234094 -0.46564257 1.526719 320772
0.35232335 -0.46199572 1.5147624 321796
0.35342121 -0.45985669 1.5077491 323332
0.35614929 -0.45985532 1.5077446 323844
0.3588773 -0.45985401 1.50774 324612
0.36160529 -0.45985252 1.5077353 325636
0.36433333 -0.45985115 1.5077307 326660
0.36706132 -0.45984977 1.5077262 327428
0.3697893 -0.45984852 1.5077219 392965
0.3725172 -0.45984703 1.5077171 392965
0.37524515 -0.45984572 1.5077128 392965
0.37797308 -0.45984429 1.5077083 392965
0.38070104 -0.45984298 1.5077039 392965
0.3834289 -0.45984155 1.5076993 392965
0.3861568 -0.45984018 1.5076947 392965
0.38888466 -0.45983875 1.5076903 392965
0.39161253 -0.45983744 1.5076859 392965
0.39434037 -0.45983607 1.5076814 392965
0.39706811 -0.45983464 1.5076767 392965
0.39979595 -0.45983332 1.5076723 392965
0.4025237 -0.45983195 1.5076678 392965
0.4052515 -0.45983058 1.5076635 392965
0.40797919 -0.45982909 1.5076588 392965
0.410707 -0.45982778 1.5076542 392965
0.41343465 -0.45982635 1.5076498 392965
0.4161624 -0.45982516 1.5076454 392965
0.41889006 -0.45982373 1.5076408 327428
0.42161769 -0.45982242 1.5076363 327428
0.42434537 -0.45982099 1.5076318 327428
0.42707303 -0.45981961 1.5076275 327428
0.42980063 -0.45981824 1.507623 327428
0.4325282 -0.45981687 1.5076182 327428
0.4352558 -0.45981544 1.5076137 327428
0.43798333 -0.45981407 1.5076091 261891
0.44071093 -0.4598127 1.5076048 261891
0.44343847 -0.45981133 1.5076003 261379
0.44616598 -0.45981002 1.5075958 260355
0.44889349 -0.45980853 1.5075915 259331
0.45162103 -0.45980722 1.5075868 4319532
0.35244945 -0.48588687 1.6026061 26112
0.35243014 -0.48189402 1.5894365 31744
0.35241109 -0.47796631 1.5764813 105217
0.35239249 -0.47410226 1.5637363 177666
0.35237414 -0.47029996 1.5511954 248067
0.35235605 -0.46655816 1.538854 251395
0.35233825 -0.46287555 1.5267075 318724
0.3523204 -0.45925009 1.5147496 321284
0.35385031 -0.45768261 1.5095795 322564
0.35658166 -0.45768118 1.5095749 322820
0.35931298 -0.45767975 1.5095702 323076
0.36204433 -0.45767832 1.5095658 324100
0.36477563 -0.45767701 1.5095613 325380
0.36750692 -0.45767564 1.5095567 326404
0.37023818 -0.45767426 1.5095522 327428
0.37296942 -0.45767289 1.5095476 392965
0.37570068 -0.45767152 1.5095431 392965
0.37843198 -0.45767015 1.5095387 392965
0.38116318 -0.45766884 1.5095341 392965
0.38389441 -0.45766747 1.5095297 392965
0.38662556 -0.45766604 1.5095251 392965
0.3893567 -0.45766473 1.5095205 392965
0.39208791 -0.4576633 1.5095162 392965
0.39481902 -0.45766199 1.5095116 392965
0.39755011 -0.45766056 1.5095069 392965
0.40028125 -0.4576593 1.5095026 392965
0.40301234 -0.45765775 1.5094979 392965
0.40574345 -0.45765656 1.5094936 392965
0.40847453 -0.45765519 1.5094891 392965
0.41120553 -0.45765376 1.5094844 392965
0.41393656 -0.45765245 1.50948 392965
0.41666755 -0.45765108 1.5094755 392965
0.41939855 -0.45764971 1.5094709 327428
0.42212951 -0.45764834 1.5094664 327428
0.42486048 -0.45764697 1.5094619 327428
0.42759144 -0.45764554 1.5094573 327428
0.43032235 -0.45764416 1.5094528 327428
0.43305326 -0.45764273 1.5094483 327428
0.43578419 -0.45764142 1.5094438 327428
0.43851504 -0.45764011 1.5094395 261891
0.44124588 -0.45763868 1.5094349 261891
0.44397676 -0.45763743 1.5094304 260611
0.44670752 -0.457636 1.5094258 259587
0.44943836 -0.45763463 1.5094213 258563
0.45216921 -0.4576332 1.5094168 8380759
0.35244659 -0.48298216 1.6025932 26112
0.3524273 -0.47901326 1.5894237 29696
0.35240835 -0.47510904 1.5764692 102913
0.35238969 -0.47126794 1.5637238 175362
0.35237136 -0.46748847 1.5511832 246019
0.3523533 -0.46376926 1.5388421 249347
0.35233539 -0.46010828 1.526695 251907
0.35231745 -0.45650458 1.5147369 320772
0.35428044 -0.45550317 1.5114145 321540
0.3570151 -0.45550174 1.5114099 322052
0.35974973 -0.45550036 1.5114051 322308
0.3624844 -0.45549893 1.5114006 322564
0.36521897 -0.4554975 1.5113959 323588
0.36795363 -0.45549613 1.5113915 324868
0.3706882 -0.45549488 1.511387 325892
0.37342277 -0.45549351 1.5113823 326916
0.37615731 -0.45549214 1.5113778 392965
0.37889192 -0.45549077 1.5113733 392965
0.38162646 -0.4554894 1.5113688 392965
0.38436097 -0.45548797 1.5113642 392965
0.38709548 -0.45548666 1.5113598 392965
0.38982993 -0.45548534 1.5113554 392965
0.39256445 -0.45548397 1.5113509 392965
0.3952989 -0.4554826 1.5113463 392965
0.39803338 -0.45548135 1.5113418 392965
0.40076777 -0.4554798 1.511337 392965
0.40350217 -0.45547837 1.5113325 392965
0.40623659 -0.45547718 1.5113282 392965
0.40897098 -0.45547581 1.5113237 392965
0.41170532 -0.45547432 1.511319 392965
0.41443962 -0.45547301 1.5113145 392965
0.41717398 -0.45547169 1.5113101 392965
0.41990826 -0.45547032 1.5113056 327428
0.42264259 -0.45546901 1.511301 327428
0.42537683 -0.45546758 1.5112964 327428
0.42811111 -0.45546633 1.511292 327428
0.43084535 -0.45546484 1.5112873 327428
0.43357956 -0.45546347 1.5112829 327428
0.43631381 -0.4554621 1.5112784 327428
0.43904799 -0.45546079 1.5112739 261891
0.44178215 -0.45545942 1.5112693 261123
0.44451636 -0.45545805 1.5112648 259843
0.44725043 -0.45545661 1.5112603 258819
0.44998458 -0.4554553 1.5112557 257795
0.35246333 -0.48408842 1.6159693 8165454
0.35244378 -0.48007751 1.6025803 26112
0.35242453 -0.47613251 1.589411 27392
0.35240558 -0.47225177 1.5764565 100609
0.35238695 -0.46843386 1.5637118 173058
0.35236862 -0.46467721 1.5511713 243715
0.35235059 -0.46098018 1.53883 247043
0.35233241 -0.45734107 1.5266821 251395
0.3523145 -0.4537589 1.5147243 320004
0.35471159 -0.45331836 1.5132538 320516
0.35744959 -0.45331705 1.5132492 321028
0.36018756 -0.45331568 1.5132446 321284
0.36292547 -0.45331424 1.5132401 321796
0.36566341 -0.45331281 1.5132351 322052
0.36840138 -0.4533115 1.5132307 323076
0.37113929 -0.45331007 1.5132263 324100
0.3738772 -0.45330876 1.5132217 325380
0.37661508 -0.45330739 1.5132172 326404
0.37935296 -0.45330608 1.5132126 392965
0.38209087 -0.45330471 1.513208 392965
0.38482875 -0.45330346 1.5132036 392965
0.38756657 -0.45330197 1.5131991 392965
0.39030436 -0.45330065 1.5131946 392965
0.39304215 -0.45329922 1.51319 392965
0.39577994 -0.45329779 1.5131855 392965
0.3985177 -0.45329642 1.5131807 392965
0.40125546 -0.45329511 1.5131763 392965
0.40399319 -0.4532938 1.5131717 392965
0.40673092 -0.45329243 1.5131671 392965
0.40946865 -0.45329112 1.5131627 392965
0.41220629 -0.45328963 1.5131581 392965
0.41494396 -0.45328838 1.5131536 392965
0.4176816 -0.45328707 1.513149 392965
0.42041922 -0.45328563 1.5131445 327428
0.42315686 -0.45328426 1.51314 327428
0.42589444 -0.45328295 1.5131354 327428
0.42863202 -0.45328158 1.5131309 327428
0.43136963 -0.45328033 1.5131265 327428
0.43410718 -0.45327896 1.5131221 327428
0.43684471 -0.45327759 1.5131173 327428
0.43958223 -0.45327616 1.5131128 261123
0.44231972 -0.45327479 1.5131083 260099
0.44505724 -0.45327348 1.5131037 259075
0.44779474 -0.45327216 1.5130994 257795
0.45053217 -0.45327073 1.5130947 256771
0.35246047 -0.48115951 1.6159561 4095783
0.35244092 -0.47717291 1.6025672 26112
0.35242173 -0.47325182 1.5893984 26112
0.35240281 -0.46939462 1.576444 98305
0.35238421 -0.46559983 1.5636995 170754
0.35236588 -0.46186578 1.5511591 176130
0.35234767 -0.45819104 1.5388174 246531
0.35232943 -0.45457387 1.5266691 250883
0.35240245 -0.45112985 1.5151025 319236
0.35514376 -0.45112836 1.5150979 319492
0.35788512 -0.45112693 1.5150931 320004
0.36062643 -0.4511255 1.5150883 320260
0.36336768 -0.45112407 1.5150837 320516
0.36610895 -0.45112282 1.515079 321028
0.36885023 -0.45112139 1.5150743 321284
0.37159151 -0.45112008 1.51507 322564
0.37433276 -0.45111865 1.5150654 323588
0.37707397 -0.4511174 1.5150608 324612
0.37981519 -0.45111597 1.5150563 325636
0.38255641 -0.45111465 1.5150516 392453
0.3852976 -0.45111328 1.5150471 392965
0.38803875 -0.45111191 1.5150428 392965
0.39077988 -0.45111054 1.515038 392965
0.39352101 -0.45110923 1.5150335 392965
0.39626211 -0.45110786 1.5150288 392965
0.39900324 -0.45110649 1.5150244 392965
0.40174434 -0.45110518 1.5150199 392965
0.4044854 -0.45110387 1.5150154 392965
0.40722644 -0.4511025 1.5150108 392965
0.40996748 -0.45110101 1.5150063 392965
0.41270849 -0.45109975 1.5150018 392965
0.4154495 -0.4510985 1.5149971 392965
0.41819048 -0.45109713 1.5149926 392965
0.42093143 -0.4510957 1.5149881 327428
0.42367241 -0.45109439 1.5149834 327428
0.4264133 -0.45109302 1.5149789 327428
0.42915428 -0.45109159 1.5149744 327428
0.4318952 -0.45109028 1.5149698 327428
0.43463609 -0.45108896 1.5149654 327428
0.43737698 -0.45108753 1.5149609 326916
0.44011778 -0.45108622 1.5149561 260099
0.44285861 -0.45108491 1.5149517 259075
0.44559944 -0.45108354 1.5149472 258051
0.44834027 -0.45108217 1.5149426 256771
0.45108104 -0.4510808 1.5149381 255747
0.35245758 -0.47823054 1.615943 26112
0.35243809 -0.47426826 1.6025543 26112
0.35241887 -0.47037113 1.5893857 26112
0.3524 -0.46653736 1.5764315 96001
0.35238141 -0.46276569 1.563687 168450
0.35236317 -0.45905459 1.551147 173826
0.35234457 -0.45540178 1.5388041 245763
0.35232642 -0.45180666 1.5266562 250115
0.35283238 -0.44893432 1.5169506 318212
0.35557705 -0.44893295 1.5169461 318468
0.35832173 -0.44893152 1.5169415 318980
0.36106637 -0.4489302 1.5169368 319236
0.36381099 -0.44892877 1.516932 319492
0.36655563 -0.44892746 1.5169275 319748
0.36930025 -0.44892597 1.5169227 320004
0.37204477 -0.44892466 1.5169181 320516
0.37478936 -0.44892329 1.5169135 321540
0.37753394 -0.44892198 1.516909 322820
0.3802785 -0.44892055 1.5169044 323844
0.38302305 -0.44891924 1.5168998 324868
0.38576758 -0.44891793 1.5168953 325892
0.38851207 -0.44891655 1.5168908 392453
0.39125657 -0.44891512 1.5168861 392965
0.39400107 -0.44891387 1.5168815 392965
0.3967455 -0.4489125 1.5168769 392965
0.39948997 -0.44891113 1.5168724 392965
0.40223441 -0.44890976 1.516868 392965
0.40497878 -0.44890845 1.5168633 392965
0.40772319 -0.44890714 1.5168588 392965
0.41046759 -0.44890577 1.5168543 392965
0.41321194 -0.44890445 1.5168498 392965
0.41595626 -0.44890302 1.5168451 392965
0.41870058 -0.44890165 1.5168406 327428
0.42144486 -0.44890046 1.5168362 327428
0.42418921 -0.44889897 1.5168316 327428
0.4269335 -0.44889766 1.5168269 327428
0.42967772 -0.44889635 1.5168223 327428
0.43242198 -0.44889498 1.5168178 327428
0.43516621 -0.44889355 1.5168133 326660
0.43791041 -0.4488923 1.5168087 260099
0.44065461 -0.44889098 1.516804 259075
0.44339877 -0.44888961 1.5167994 257795
0.44614291 -0.44888818 1.5167952 256771
0.44888717 -0.44888699 1.5167907 255747
0.45163131 -0.44888562 1.5167862 4383023
0.35245475 -0.4753018 1.61593 26112
0.35243523 -0.47136384 1.6025416 26112
0.3524161 -0.46749055 1.589373 26112
0.35239717 -0.46368033 1.5764191 93697
0.35237864 -0.45993167 1.5636748 100353
0.35236007 -0.45624286 1.5511335 173314
0.35234159 -0.45261258 1.5387909 244995
0.35232344 -0.44903952 1.5266433 249347
0.35326335 -0.44673353 1.5188036 317444
0.35601139 -0.44673222 1.5187991 317444
0.35875943 -0.44673085 1.5187943 317700
0.36150745 -0.44672936 1.5187898 317956
0.3642554 -0.44672805 1.5187849 318212
0.36700335 -0.44672668 1.5187804 318724
0.36975133 -0.44672537 1.5187757 318980
0.3724992 -0.44672394 1.5187709 319236
0.37524712 -0.44672257 1.5187662 319748
0.37799507 -0.4467212 1.5187618 320772
0.38074297 -0.44671983 1.5187571 321796
0.38349089 -0.44671851 1.5187526 322820
0.38623875 -0.4467172 1.518748 323844
0.38898659 -0.44671577 1.5187434 324868
0.39173448 -0.44671452 1.518739 391429
0.39448225 -0.44671321 1.5187342 392453
0.39723006 -0.44671178 1.5187297 392965
0.39997786 -0.44671035 1.5187252 392965
0.40272564 -0.4467091 1.5187206 392965
0.40547344 -0.44670779 1.518716 392965
0.40822119 -0.44670647 1.5187116 392965
0.41096893 -0.4467051 1.5187068 392965
0.41371661 -0.44670379 1.5187024 392965
0.41646433 -0.44670236 1.5186977 327428
0.41921198 -0.44670111 1.5186932 327428
0.42195964 -0.4466998 1.5186886 327428
0.42470729 -0.44669837 1.518684 327428
0.42745495 -0.44669706 1.5186796 327428
0.43020248 -0.44669569 1.5186749 327172
0.43295011 -0.44669437 1.5186703 326404
0.4356977 -0.446693 1.5186658 325380
0.43844527 -0.44669169 1.5186613 258819
0.44119281 -0.44669032 1.5186567 257795
0.44394031 -0.44668895 1.5186522 256515
0.44668782 -0.44668764 1.5186477 254467
0.44943538 -0.44668639 1.5186431 253699
0.45218289 -0.44668508 1.5186386 8445274
0.35245192 -0.47237313 1.6159168 26112
0.35243243 -0.46845931 1.6025286 26112
0.35241327 -0.46460992 1.5893605 26112
0.35239443 -0.46082324 1.5764067 26112
0.35237575 -0.45709771 1.5636618 98561
0.35235703 -0.45343131 1.55112 172546
0.35233861 -0.44982338 1.5387777 244227
0.35232049 -0.44627237 1.5266304 248579
0.35369539 -0.44452745 1.5206612 315908
0.35644677 -0.44452602 1.5206566 316164
0.35919815 -0.44452477 1.5206519 316420
0.36194956 -0.44452339 1.5206472 316932
0.36470085 -0.4445219 1.5206423 317188
0.3674522 -0.44452059 1.5206378 317444
0.3702035 -0.44451928 1.5206332 317700
0.37295479 -0.44451785 1.5206285 317956
0.37570608 -0.44451642 1.5206236 317956
0.37845734 -0.44451499 1.5206189 318724
0.3812086 -0.44451368 1.5206144 319748
0.38395983 -0.44451249 1.5206097 320772
0.38671106 -0.444511 1.5206051 321796
0.38946226 -0.44450974 1.5206008 322820
0.39221349 -0.44450849 1.5205963 323844
0.39496464 -0.44450706 1.5205915 324612
0.39771584 -0.44450581 1.520587 325636
0.40046695 -0.44450438 1.5205823 391941
0.40321812 -0.44450313 1.5205778 392709
0.40596926 -0.44450176 1.5205733 392965
0.40872037 -0.44450045 1.5205686 392965
0.41147149 -0.44449902 1.5205641 392965
0.41422251 -0.4444977 1.5205594 327428
0.41697356 -0.44449639 1.5205549 327428
0.41972461 -0.44449502 1.5205503 327428
0.42247561 -0.44449365 1.5205457 327428
0.42522663 -0.44449234 1.5205412 327172
0.42797762 -0.44449097 1.5205367 326404
0.43072855 -0.44448966 1.5205319 325636
0.43347952 -0.44448829 1.5205274 324868
0.43623048 -0.44448698 1.5205228 258307
0.43898138 -0.44448566 1.5205183 257283
0.44173232 -0.44448429 1.5205138 256259
0.44448313 -0.44448292 1.520509 255235
0.447234 -0.44448155 1.5205045 254211
0.44998494 -0.44448024 1.5204999 253187
0.352449 -0.46944433 1.6159036 26112
0.35242957 -0.46555495 1.6025157 26112
0.35241047 -0.46172947 1.5893476 26112
0.35239163 -0.45796633 1.5763943 26112
0.35237271 -0.45426345 1.5636485 98305
0.35235405 -0.45061994 1.5511069 171778
0.3523356 -0.44703424 1.5387647 243459
0.35231748 -0.44350529 1.5266173 248067
0.35412851 -0.44231594 1.5225232 249347
0.35688326 -0.44231439 1.5225185 315140
0.35963801 -0.44231319 1.5225139 315396
0.36239272 -0.44231176 1.5225091 315652
0.36514744 -0.44231045 1.5225044 315908
0.36790213 -0.44230896 1.5224998 316164
0.37065676 -0.44230765 1.5224948 316164
0.37341142 -0.44230622 1.5224903 316420
0.37616605 -0.44230485 1.5224855 316676
0.3789207 -0.4423036 1.522481 316932
0.38167533 -0.44230223 1.5224762 317444
0.38442993 -0.44230092 1.5224714 318468
0.38718456 -0.44229949 1.5224669 319492
0.38993913 -0.44229823 1.5224624 320516
0.3926937 -0.4422968 1.5224578 321284
0.39544821 -0.44229549 1.5224531 322308
0.39820275 -0.44229418 1.5224488 323332
0.40095729 -0.44229275 1.5224439 324100
0.4037118 -0.4422915 1.5224395 324612
0.40646634 -0.44229019 1.5224349 325380
0.40922078 -0.44228882 1.5224302 325892
0.41197523 -0.44228762 1.5224257 326148
0.41472965 -0.44228619 1.5224211 326148
0.41748407 -0.44228494 1.5224166 326148
0.42023841 -0.44228357 1.5224118 326148
0.42299286 -0.4422822 1.5224073 325636
0.42574722 -0.44228095 1.5224028 325124
0.42850161 -0.44227958 1.5223982 324612
0.43125591 -0.44227821 1.5223936 323844
0.43401021 -0.44227684 1.5223889 323076
0.43676457 -0.44227558 1.5223844 256515
0.43951884 -0.44227427 1.5223799 255491
0.44227308 -0.4422729 1.5223751 254723
0.44502729 -0.44227153 1.5223706 253699
0.44778159 -0.44227016 1.522366 252675
0.45053583 -0.44226885 1.5223615 251651
0.3524659 -0.47044599 1.629504 6915904
0.35244617 -0.46651566 1.6158905 26112
0.35242677 -0.4626506 1.6025028 26112
0.35240763 -0.45884889 1.5893348 26112
0.35238862 -0.455109 1.5763807 26112
0.35236967 -0.45142919 1.5636349 97537
0.35235098 -0.44780833 1.5510933 171010
0.35233256 -0.44424516 1.5387514 242691
0.35231447 -0.44073826 1.5266043 247299
0.35456264 -0.44009894 1.5243897 248067
0.35732076 -0.44009763 1.524385 248323
0.36007887 -0.4400962 1.5243802 248579
0.36283696 -0.44009477 1.5243757 314116
0.36559501 -0.44009346 1.5243709 314372
0.36835313 -0.44009203 1.5243661 314628
0.37111115 -0.44009066 1.5243614 314884
0.37386918 -0.44008929 1.5243566 315140
0.37662721 -0.44008803 1.5243521 315140
0.3793852 -0.44008654 1.5243473 315396
0.38214323 -0.44008523 1.5243425 315396
0.38490123 -0.44008392 1.5243378 316164
0.38765916 -0.44008255 1.5243332 317188
0.39041713 -0.4400813 1.5243287 318212
0.3931751 -0.44008005 1.5243242 318980
0.39593297 -0.44007862 1.5243196 320004
0.39869091 -0.4400773 1.5243149 320772
0.40144882 -0.44007605 1.5243104 321540
0.40420669 -0.44007456 1.5243057 322308
0.40696457 -0.44007337 1.5243012 322820
0.40972236 -0.44007182 1.5242963 323332
0.41248024 -0.44007057 1.5242919 323588
0.41523802 -0.44006926 1.5242873 323844
0.41799581 -0.44006801 1.5242827 323844
0.4207536 -0.44006664 1.5242782 323844
0.42351133 -0.44006538 1.5242734 323588
0.42626908 -0.44006401 1.5242689 323076
0.42902684 -0.4400627 1.5242643 322564
0.43178457 -0.44006145 1.5242598 321796
0.43454221 -0.44005996 1.524255 255491
0.43729991 -0.44005871 1.5242505 254723
0.44005755 -0.4400574 1.5242459 253699
0.44281524 -0.44005609 1.5242413 252931
0.44557288 -0.44005466 1.5242368 251907
0.44833046 -0.4400534 1.5242321 251139
0.45108807 -0.44005215 1.5242276 250115
0.35246301 -0.46749258 1.6294906 5009453
0.35244331 -0.46358699 1.6158774 26112
0.35242391 -0.45974618 1.6024899 26112
0.35240483 -0.4559685 1.5893223 26112
0.35238555 -0.45225167 1.5763671 26112
0.35236657 -0.44859499 1.563621 97025
0.35234791 -0.44499701 1.55108 170242
0.35232958 -0.4414562 1.5387383 241923
0.35231149 -0.43797135 1.5265915 246275
0.35499784 -0.43787646 1.5262609 246787
0.35775936 -0.43787515 1.5262561 246787
0.3605209 -0.43787378 1.5262516 247043
0.36328235 -0.43787241 1.5262465 247299
0.36604381 -0.4378711 1.526242 247555
0.36880529 -0.43786973 1.5262374 247811
0.37156668 -0.43786824 1.5262325 313348
0.37432811 -0.43786699 1.5262278 313604
0.37708953 -0.43786561 1.5262231 313604
0.37985089 -0.4378643 1.5262184 313860
0.38261229 -0.43786293 1.5262136 313860
0.38537362 -0.43786156 1.5262089 313860
0.38813496 -0.43786025 1.5262043 314884
0.39089632 -0.43785888 1.5261996 315652
0.39365765 -0.43785757 1.526195 316420
0.39641893 -0.4378562 1.5261904 317444
0.3991802 -0.43785489 1.5261858 318212
0.40194148 -0.43785346 1.526181 318980
0.40470278 -0.43785226 1.5261766 319492
0.40746403 -0.43785101 1.5261719 320260
0.41022527 -0.43784964 1.5261674 320772
0.41298643 -0.43784821 1.5261626 321028
0.41574764 -0.43784702 1.5261581 321284
0.41850889 -0.43784571 1.5261536 321284
0.42127001 -0.43784434 1.5261488 321284
0.42403114 -0.43784297 1.5261443 321028
0.42679226 -0.43784171 1.5261395 320772
0.42955339 -0.43784034 1.526135 320260
0.43231449 -0.43783903 1.5261303 254211
0.43507561 -0.43783772 1.5261259 253443
0.43783659 -0.43783641 1.5261211 252675
0.44059765 -0.4378351 1.5261166 251907
0.44335866 -0.43783373 1.526112 251139
0.44611967 -0.43783242 1.5261074 250115
0.4488807 -0.4378311 1.5261028 249347
0.45164168 -0.43782991 1.5260983 4246314
0.35246015 -0.46453929 1.6294775 2714904
0.35244045 -0.46065843 1.6158643 26112
0.3524211 -0.45684189 1.6024768 26112
0.3524017 -0.45308775 1.5893083 26112
0.35238242 -0.44939435 1.576353 26112
0.35236353 -0.44576085 1.5636077 96257
0.35234487 -0.44218564 1.5510666 169730
0.35232654 -0.43866718 1.538725 241155
0.35266918 -0.43564987 1.5281414 245251
0.35543409 -0.43564862 1.5281367 245251
0.35819903 -0.43564713 1.5281318 245507
0.36096394 -0.43564588 1.5281272 245763
0.36372879 -0.43564457 1.5281224 246019
0.36649364 -0.43564314 1.5281177 246019
0.36925852 -0.43564183 1.5281129 246275
0.37202334 -0.43564045 1.5281084 246275
0.37478817 -0.43563908 1.5281034 246531
0.37755299 -0.43563771 1.5280988 246531
0.38031775 -0.43563646 1.5280941 246787
0.38308248 -0.43563503 1.5280893 312324
0.38584727 -0.43563378 1.5280845 312324
0.38861194 -0.43563235 1.5280797 312324
0.39137667 -0.43563104 1.528075 313348
0.39414141 -0.43562979 1.5280704 314116
0.39690608 -0.43562835 1.5280659 314884
0.39967078 -0.43562716 1.5280614 315652
0.40243545 -0.43562585 1.5280566 316164
0.40520009 -0.43562442 1.528052 316932
0.40796477 -0.43562317 1.5280474 317444
0.41072938 -0.43562186 1.5280428 317956
0.41349393 -0.43562043 1.528038 318468
0.41625854 -0.43561924 1.5280335 318724
0.4190231 -0.43561786 1.5280288 318724
0.42178765 -0.43561655 1.5280242 318724
0.42455214 -0.43561524 1.5280195 318468
0.4273167 -0.43561399 1.5280151 318212
0.43008122 -0.43561262 1.5280104 252419
0.43284574 -0.43561131 1.5280058 251907
0.4356102 -0.43560994 1.5280012 251139
0.43837461 -0.43560863 1.5279963 250627
0.44113907 -0.43560737 1.5279918 249859
0.44390351 -0.435606 1.5279874 249091
0.44666791 -0.43560463 1.5279827 248323
0.44943228 -0.43560338 1.5279781 182018
0.45219666 -0.43560207 1.5279735 8176975
0.35245723 -0.461586 1.6294639 26112
0.35243756 -0.45772994 1.6158512 26112
0.35241812 -0.45393753 1.6024635 26112
0.35239857 -0.45020688 1.5892941 26112
0.35237935 -0.44653732 1.5763394 26112
0.35236046 -0.44292682 1.5635941 95489
0.35234186 -0.43937421 1.5510533 168962
0.35232353 -0.4358784 1.538712 240387
0.35310313 -0.4334166 1.5300219 243971
0.3558715 -0.43341529 1.5300171 243971
0.35863981 -0.43341386 1.5300124 244227
0.36140808 -0.43341249 1.5300075 244227
0.36417636 -0.43341118 1.5300028 244483
0.36694464 -0.43340987 1.5299981 244483
0.36971289 -0.4334085 1.5299933 244739
0.37248108 -0.43340719 1.5299885 244739
0.37524933 -0.43340582 1.5299839 244995
0.37801751 -0.43340445 1.529979 244995
0.3807857 -0.43340313 1.5299745 244995
0.38355389 -0.43340182 1.5299695 245251
0.38632199 -0.43340045 1.5299647 245251
0.38909009 -0.43339896 1.5299599 245251
0.39185822 -0.43339771 1.5299553 245251
0.39462635 -0.4333964 1.5299506 246019
0.39739445 -0.43339521 1.5299461 312068
0.40016255 -0.43339396 1.5299416 312836
0.40293059 -0.43339235 1.5299368 313604
0.40569863 -0.43339115 1.529932 314116
0.4084667 -0.4333899 1.5299275 314628
0.41123471 -0.43338853 1.5299227 315140
0.41400269 -0.43338728 1.5299182 315652
0.4167707 -0.43338585 1.5299135 315908
0.41953865 -0.43338454 1.5299089 315908
0.42230657 -0.43338329 1.5299041 315908
0.42507455 -0.43338203 1.5298997 250371
0.42784244 -0.4333806 1.5298948 250115
0.43061036 -0.43337935 1.5298902 249859
0.43337825 -0.43337798 1.5298858 249347
0.43614614 -0.43337679 1.5298811 248835
0.43891391 -0.43337542 1.5298765 248323
0.44168183 -0.43337411 1.5298718 247555
0.44444963 -0.43337286 1.5298672 246787
0.4472174 -0.43337154 1.5298625 180738
0.44998527 -0.43337023 1.5298581 179970
0.35245436 -0.45863289 1.6294506 26112
0.35243469 -0.45480138 1.6158381 26112
0.35241497 -0.451033 1.6024494 26112
0.35239547 -0.44732624 1.5892801 26112
0.35237631 -0.44368017 1.5763255 26112
0.35235739 -0.44009274 1.5635805 94977
0.35233879 -0.43656301 1.5510398 168194
0.35232049 -0.43308938 1.5386987 239619
0.35353819 -0.43117774 1.5319068 242435
0.35630995 -0.43117636 1.5319021 242435
0.35908166 -0.43117493 1.5318973 242691
0.36185336 -0.43117368 1.5318925 242691
0.36462504 -0.43117243 1.5318878 242947
0.36739671 -0.43117112 1.531883 242947
0.37016836 -0.43116969 1.5318782 243203
0.37293994 -0.43116826 1.5318735 243203
0.37571159 -0.43116701 1.5318687 243203
0.37848321 -0.43116558 1.5318637 243459
0.38125482 -0.43116432 1.5318592 243459
0.38402641 -0.43116295 1.5318544 243459
0.38679796 -0.43116164 1.5318496 243459
0.38956946 -0.43116033 1.5318449 243459
0.39234099 -0.43115902 1.5318401 243203
0.39511245 -0.43115759 1.5318353 243459
0.39788395 -0.43115628 1.5318307 243971
0.40065551 -0.43115503 1.531826 244739
0.40342695 -0.4311536 1.5318214 245251
0.40619841 -0.43115228 1.5318167 245763
0.40896985 -0.43115097 1.5318121 246275
0.41174132 -0.43114972 1.5318074 246787
0.41451272 -0.43114853 1.5318029 247043
0.41728407 -0.4311471 1.5317981 247299
0.42005542 -0.43114591 1.5317934 247555
0.42282683 -0.43114454 1.5317889 247555
0.42559817 -0.43114322 1.5317843 247555
0.42836949 -0.43114191 1.5317795 247299
0.43114078 -0.4311406 1.5317748 247043
0.43391213 -0.43113935 1.5317703 246787
0.43668342 -0.43113804 1.5317657 246275
0.43945464 -0.43113673 1.5317611 245763
0.44222587 -0.43113542 1.5317564 245251
0.4449971 -0.43113405 1.5317516 179202
0.44776836 -0.43113285 1.5317472 178434
0.45053956 -0.43113154 1.5317427 177922
0.35243165 -0.45187283 1.6158242 26112
0.3524119 -0.44812852 1.6024352 26112
0.35239235 -0.44444567 1.5892661 26112
0.35237315 -0.44082284 1.5763115 26112
0.35235429 -0.43725872 1.5635667 94209
0.35233578 -0.43375176 1.5510263 167426
0.35231748 -0.43030065 1.5386857 238851
0.35397425 -0.42893332 1.5337965 240899
0.35674942 -0.42893195 1.5337915 241155
0.35952461 -0.42893064 1.5337869 241155
0.36229971 -0.42892921 1.533782 241155
0.36507478 -0.42892802 1.5337772 241411
0.36784989 -0.42892665 1.5337725 241411
0.37062493 -0.42892528 1.5337677 241411
0.3734 -0.4289239 1.5337629 241667
0.37617505 -0.42892265 1.5337582 241667
0.37895006 -0.42892128 1.5337534 241667
0.38172507 -0.42891991 1.5337486 241667
0.38450006 -0.4289186 1.5337439 241667
0.38727504 -0.42891723 1.5337391 241667
0.39004996 -0.42891604 1.5337343 241411
0.39282492 -0.42891455 1.5337296 241411
0.39559981 -0.42891318 1.5337248 241411
0.39837471 -0.42891192 1.53372 241411
0.4011496 -0.42891061 1.5337152 241923
0.40392452 -0.4289093 1.5337107 242435
0.40669939 -0.42890799 1.5337059 242947
0.40947428 -0.42890668 1.5337014 243459
0.41224912 -0.42890549 1.5336968 243971
0.41502392 -0.42890418 1.5336921 244227
0.41779873 -0.42890275 1.5336874 244483
0.4205735 -0.42890143 1.5336826 244739
0.42334831 -0.42890024 1.5336781 244739
0.42612311 -0.42889887 1.5336734 244739
0.42889786 -0.42889768 1.5336689 244739
0.43167257 -0.42889637 1.5336642 244483
0.43444729 -0.428895 1.5336593 244227
0.43722197 -0.42889369 1.5336548 243715
0.43999663 -0.42889237 1.5336502 243459
0.44277126 -0.42889106 1.5336454 177410
0.44554591 -0.42888987 1.5336409 175618
0.4483206 -0.42888856 1.5336363 174338
0.45109519 -0.42888725 1.5336317 174338
0.35242853 -0.44894391 1.6158097 26112
0.35240868 -0.44522393 1.6024207 26112
0.35238925 -0.44156504 1.589252 26112
0.35237008 -0.43796587 1.5762979 26112
0.35235128 -0.43442494 1.5635533 93697
0.35233268 -0.43094051 1.5510131 166658
0.3523145 -0.42751187 1.5386726 238339
0.35441145 -0.42668325 1.5356905 239363
0.35719004 -0.42668205 1.5356859 239619
0.3599686 -0.42668062 1.5356811 239619
0.36274713 -0.42667943 1.5356764 239619
0.36552566 -0.426678 1.5356715 239875
0.36830419 -0.42667675 1.5356667 239875
0.37108266 -0.42667532 1.5356619 239875
0.37386113 -0.42667401 1.5356572 239875
0.3766396 -0.42667282 1.5356524 239875
0.37941805 -0.42667139 1.5356476 239875
0.38219652 -0.42667007 1.5356429 239875
0.38497493 -0.4266687 1.5356381 239875
0.38775331 -0.42666745 1.5356333 239875
0.39053169 -0.42666608 1.5356284 239619
0.39331004 -0.42666477 1.5356238 239619
0.39608842 -0.42666346 1.535619 239363
0.39886671 -0.42666197 1.535614 239363
0.40164503 -0.42666072 1.5356094 239363
0.40442336 -0.42665941 1.5356047 239875
0.40720162 -0.42665815 1.5355998 240387
0.40997994 -0.42665672 1.5355952 240643
0.41275823 -0.42665559 1.5355906 241155
0.41553649 -0.42665428 1.5355861 241411
0.41831473 -0.42665297 1.5355816 241667
0.42109287 -0.42665172 1.5355766 241923
0.42387113 -0.42665035 1.5355721 241923
0.4266493 -0.42664909 1.5355675 241923
0.42942747 -0.42664784 1.5355628 241923
0.43220562 -0.42664641 1.535558 241667
0.43498373 -0.42664522 1.5355535 241411
0.43776187 -0.42664391 1.5355487 241155
0.44053996 -0.42664266 1.535544 175362
0.44331801 -0.42664129 1.5355394 174850
0.44609606 -0.42663997 1.5355346 173826
0.44887415 -0.42663866 1.5355301 173058
0.4516522 -0.42663735 1.5355253 4041252
0.35242531 -0.44601524 1.615795 26112
0.35240558 -0.44231945 1.6024063 26112
0.35238612 -0.43868458 1.5892379 26112
0.35236701 -0.4351089 1.5762841 26112
0.35234821 -0.43159103 1.5635397 93185
0.3523297 -0.42812955 1.5509999 166146
0.35231143 -0.42472309 1.5386593 237571
0.35484967 -0.42442775 1.5375897 238083
0.35763174 -0.42442656 1.5375849 238083
0.36041373 -0.42442524 1.5375803 238083
0.36319572 -0.42442399 1.5375755 238083
0.3659777 -0.42442256 1.5375705 238083
0.36875963 -0.42442125 1.5375658 238083
0.37154153 -0.42441994 1.5375609 238083
0.37432346 -0.42441863 1.5375562 238083
0.37710539 -0.42441738 1.5375515 238083
0.37988728 -0.42441595 1.5375466 238083
0.38266912 -0.42441463 1.5375419 238083
0.38545096 -0.42441326 1.5375369 238083
0.38823277 -0.42441195 1.5375322 237827
0.39101464 -0.4244107 1.5375276 237827
0.39379641 -0.42440921 1.5375226 237571
0.39657816 -0.42440796 1.5375178 237571
0.39935991 -0.42440665 1.5375129 237315
0.40214163 -0.42440534 1.537508 237059
0.40492341 -0.42440408 1.5375035 237315
0.40770513 -0.42440283 1.5374987 237571
0.41048685 -0.42440152 1.5374941 238083
0.41326854 -0.42440021 1.5374894 238339
0.41605023 -0.42439878 1.5374848 238595
0.41883197 -0.42439753 1.5374801 238851
0.42161357 -0.42439634 1.5374752 238851
0.4243952 -0.42439502 1.5374707 239107
0.42717683 -0.42439365 1.537466 239107
0.42995843 -0.4243924 1.5374613 239107
0.43274 -0.42439109 1.5374565 238851
0.43552157 -0.42438978 1.5374517 173314
0.43830311 -0.42438853 1.5374472 173058
0.44108465 -0.42438728 1.5374424 172802
0.44386616 -0.42438602 1.5374379 172546
0.44664764 -0.42438465 1.5374331 172034
0.44942918 -0.42438328 1.5374286 171778
0.45221063 -0.42438209 1.5374241 7776580
0.35240242 -0.43941516 1.6023922 26112
0.35238305 -0.43580413 1.5892241 26112
0.35236394 -0.43225199 1.5762703 26112
0.35234514 -0.42875713 1.5635262 92417
0.35232666 -0.42531836 1.5509862 165378
0.35250354 -0.42216808 1.5394982 171010
0.35528904 -0.42216676 1.5394936 236547
0.35807452 -0.42216545 1.5394886 236547
0.36085999 -0.42216414 1.5394839 236547
0.36364537 -0.42216277 1.539479 236547
0.36643082 -0.42216158 1.5394742 236547
0.36921623 -0.42216027 1.5394695 236547
0.37200156 -0.42215896 1.5394647 236547
0.37478694 -0.42215753 1.5394598 236291
0.3775723 -0.42215627 1.5394552 236291
0.38035762 -0.4221549 1.5394504 236291
0.38314292 -0.42215359 1.5394454 236291
0.38592821 -0.42215234 1.5394406 236035
0.38871348 -0.42215091 1.5394359 236035
0.39149868 -0.42214954 1.5394309 235779
0.39428392 -0.42214835 1.5394261 235779
0.39706913 -0.42214698 1.5394213 235523
0.3998543 -0.42214566 1.5394164 235267
0.40263954 -0.42214429 1.5394115 235267
0.40542471 -0.42214304 1.539407 235011
0.40820989 -0.42214179 1.5394022 235011
0.41099501 -0.42214042 1.5393972 235267
0.41378012 -0.42213923 1.5393927 235523
0.4165653 -0.42213786 1.5393879 235779
0.41935042 -0.4221366 1.5393834 236035
0.42213547 -0.42213535 1.5393785 236291
0.42492056 -0.42213398 1.5393739 170754
0.42770565 -0.42213273 1.5393695 170754
0.4304907 -0.42213148 1.5393646 170754
0.43327576 -0.42213017 1.5393599 170754
0.43606073 -0.42212886 1.5393552 170498
0.43884569 -0.4221276 1.5393505 170498
0.44163069 -0.42212629 1.5393459 170242
0.44441569 -0.42212498 1.5393412 169986
0.4472006 -0.42212367 1.5393364 169730
0.4499855 -0.42212248 1.5393319 169474
0.35239932 -0.43651092 1.6023779 26112
0.35237992 -0.43292361 1.5892099 26112
0.35236084 -0.42939496 1.5762565 26112
0.35234207 -0.42592335 1.5635123 26112
0.35232362 -0.42250741 1.5509729 164610
0.35294056 -0.41990137 1.5414069 169474
0.35572946 -0.4199 1.5414019 169218
0.35851839 -0.41989887 1.5413971 169218
0.36130732 -0.4198975 1.5413923 169218
0.36409616 -0.41989619 1.5413876 169218
0.36688507 -0.41989481 1.5413827 169218
0.36967391 -0.4198935 1.5413778 169218
0.37246269 -0.41989219 1.541373 169218
0.37525156 -0.41989094 1.5413682 169218
0.37804028 -0.41988957 1.5413632 168962
0.3808291 -0.41988826 1.5413585 168962
0.38361782 -0.41988689 1.5413537 168706
0.38640657 -0.41988569 1.5413488 168706
0.38919529 -0.41988438 1.5413442 168450
0.39198399 -0.41988301 1.5413392 168450
0.39477268 -0.41988176 1.5413344 168194
0.39756131 -0.41988045 1.5413295 167938
0.40034997 -0.41987902 1.5413246 167938
0.40313867 -0.41987777 1.54132 167682
0.40592724 -0.4198764 1.5413151 167426
0.40871587 -0.4198752 1.5413103 167170
0.41150442 -0.41987383 1.5413054 167426
0.41429302 -0.41987258 1.5413008 167426
0.41708162 -0.41987127 1.5412961 167682
0.41987017 -0.41987008 1.5412915 167938
0.42265874 -0.41986883 1.5412868 167938
0.42544723 -0.41986746 1.5412819 167938
0.42823577 -0.4198662 1.5412774 168194
0.43102431 -0.41986483 1.5412726 168194
0.4338128 -0.41986358 1.541268 167938
0.43660119 -0.41986227 1.5412631 167938
0.43938965 -0.41986096 1.5412585 167938
0.44217807 -0.41985977 1.5412538 167682
0.4449665 -0.4198584 1.5412492 167426
0.44775495 -0.41985726 1.5412447 167426
0.45054325 -0.41985589 1.5412396 167170
0.35237676 -0.43004334 1.5891957 26112
0.35235772 -0.42653811 1.5762426 26112
0.35233903 -0.42308962 1.563499 26112
0.35232058 -0.41969651 1.5509597 164098
0.35337865 -0.417629 1.5433199 167682
0.35617104 -0.41762769 1.5433152 167682
0.35896343 -0.41762638 1.5433103 167682
0.36175576 -0.41762513 1.5433054 167682
0.36454809 -0.41762382 1.5433004 167682
0.36734039 -0.41762251 1.5432956 167682
0.37013268 -0.41762125 1.5432909 167426
0.37292495 -0.41761988 1.543286 167426
0.37571725 -0.41761863 1.5432812 167426
0.37850949 -0.41761738 1.5432764 167170
0.38130176 -0.41761601 1.5432715 167170
0.38409394 -0.4176147 1.5432668 166914
