# .PCD v0.7 - Point Cloud Data file format
VERSION 0.7
FIELDS x y z rgba
SIZE 4 4 4 4
TYPE F F F U
COUNT 1 1 1 1
WIDTH 1184
HEIGHT 1
VIEWPOINT 0 0 0 1 0 0 0
POINTS 1184
DATA ascii
-0.18484151 -0.64150894 1.7162839 65988
-0.18173496 -0.64150906 1.7162842 65982
-0.1786284 -0.64150906 1.7162845 184
-0.17552185 -0.64150929 1.7162848 178
-0.17241532 -0.64150941 1.7162851 172
-0.16930875 -0.64150965 1.7162855 166
-0.16620222 -0.64150977 1.7162857 160
-0.16309567 -0.64150989 1.7162862 155
-0.15998912 -0.64150995 1.7162865 149
-0.15688254 -0.64151001 1.7162867 143
-0.15377598 -0.64151007 1.7162871 138
-0.15066943 -0.64151025 1.7162874 133
-0.14756288 -0.64151043 1.7162879 131
-0.24602215 -0.63594419 1.7096753 131837
-0.24292754 -0.63594413 1.7096753 131839
-0.23983291 -0.63594413 1.7096753 131839
-0.23673828 -0.63594419 1.7096753 131839
-0.23364368 -0.63594413 1.7096753 131839
-0.23054905 -0.63594413 1.7096752 131839
-0.22745442 -0.63594413 1.7096751 131839
-0.22435978 -0.63594413 1.7096751 131839
-0.22126518 -0.63594413 1.7096751 131839
-0.21817057 -0.63594413 1.7096751 131839
-0.21507592 -0.63594413 1.7096751 131839
-0.21198133 -0.63594413 1.7096752 131839
-0.20888674 -0.63594419 1.7096756 131837
-0.2057922 -0.63594437 1.709676 131833
-0.2026976 -0.63594455 1.7096764 131829
-0.19960301 -0.6359446 1.7096764 131825
-0.19650842 -0.63594472 1.7096767 131821
-0.19341385 -0.63594484 1.709677 131816
-0.19031925 -0.63594496 1.7096775 131811
-0.18722466 -0.6359452 1.7096779 66013
-0.18413009 -0.6359452 1.7096782 66008
-0.18103547 -0.63594532 1.7096784 66002
-0.17794089 -0.63594538 1.7096786 65996
-0.17484629 -0.63594556 1.7096789 65990
-0.17175171 -0.63594568 1.7096794 65984
-0.16865712 -0.63594586 1.7096796 65978
-0.16556253 -0.63594592 1.7096801 65972
-0.16246793 -0.63594621 1.7096806 173
-0.15937331 -0.63594609 1.7096806 167
-0.15627871 -0.63594627 1.709681 161
-0.15318412 -0.63594639 1.7096813 155
-0.15008952 -0.63594651 1.7096815 149
-0.14725608 -0.63707656 1.7127196 140
-0.245079 -0.63042349 1.7031211 197631
-0.24199626 -0.63042349 1.7031211 197631
-0.23891349 -0.63042343 1.7031211 197631
-0.23583074 -0.63042343 1.7031209 197631
-0.23274797 -0.63042349 1.7031212 197631
-0.2296652 -0.63042331 1.7031207 197631
-0.22658242 -0.63042331 1.7031208 197631
-0.22349969 -0.63042331 1.7031208 197631
-0.22041692 -0.63042331 1.7031207 197631
-0.21733418 -0.63042331 1.7031207 197631
-0.21425141 -0.63042331 1.7031207 197631
-0.21116863 -0.63042331 1.7031207 197631
-0.20808588 -0.63042331 1.7031207 197631
-0.20500316 -0.63042331 1.7031208 197631
-0.20192042 -0.63042355 1.7031212 197631
-0.19883768 -0.63042355 1.7031212 197631
-0.19575498 -0.63042372 1.7031217 131838
-0.19267225 -0.63042378 1.7031219 131834
-0.18958955 -0.6304239 1.7031224 131829
-0.18650681 -0.63042414 1.7031227 131824
-0.18342407 -0.63042402 1.7031229 131818
-0.18034136 -0.63042426 1.7031231 131813
-0.17725864 -0.63042444 1.7031236 131807
-0.1741759 -0.63042456 1.7031238 131801
-0.1710932 -0.63042474 1.7031243 66003
-0.16801047 -0.6304248 1.7031248 65996
-0.16492771 -0.63042486 1.7031248 65990
-0.16184498 -0.63042498 1.7031251 65984
-0.15876226 -0.63042504 1.7031255 65977
-0.15567954 -0.63042521 1.703126 65971
-0.1525968 -0.63042533 1.7031262 65965
-0.14951406 -0.63042545 1.7031265 166
-0.14725938 -0.63399065 1.7127581 143
-0.24721406 -0.62494493 1.6966169 6504086
-0.24414305 -0.62494493 1.6966169 197631
-0.24107209 -0.62494487 1.6966169 197631
-0.23800109 -0.62494493 1.6966169 197631
-0.23493013 -0.62494493 1.6966169 197631
-0.23185912 -0.62494493 1.6966169 197631
-0.22878815 -0.62494498 1.6966168 197631
-0.22571714 -0.62494498 1.6966168 197631
-0.22264618 -0.62494493 1.6966169 197631
-0.21957518 -0.62494493 1.6966168 197631
-0.21650422 -0.62494498 1.6966168 197631
-0.21343319 -0.62494481 1.6966166 197631
-0.21036223 -0.62494469 1.6966165 197631
-0.20729122 -0.62494481 1.6966166 197631
-0.20422024 -0.62494475 1.6966164 197631
-0.20114926 -0.62494481 1.6966166 197631
-0.19807827 -0.62494481 1.6966166 197631
-0.19500732 -0.62494493 1.6966168 197631
-0.19193637 -0.62494504 1.6966171 197631
-0.18886544 -0.6249451 1.6966175 197631
-0.18579446 -0.62494516 1.6966176 197631
-0.18272352 -0.62494528 1.6966181 197626
-0.17965257 -0.62494546 1.6966183 131829
-0.17658162 -0.62494558 1.6966186 131823
-0.17351067 -0.62494576 1.696619 131817
-0.17043971 -0.624946 1.6966195 131811
-0.16736875 -0.62494588 1.6966195 131805
-0.16429777 -0.62494612 1.69662 131799
-0.16122682 -0.62494612 1.6966202 131792
-0.15815587 -0.62494624 1.6966207 65994
-0.15508492 -0.62494642 1.6966209 65988
-0.15201394 -0.62494648 1.6966212 65981
-0.14894299 -0.62494659 1.6966214 65975
-0.14726272 -0.63090485 1.7127968 134
-0.24627356 -0.61950797 1.6901623 197631
-0.24321426 -0.61950803 1.6901623 197631
-0.24015497 -0.61950797 1.6901623 197631
-0.23709564 -0.61950803 1.6901624 197631
-0.23403634 -0.61950803 1.6901622 263423
-0.23097704 -0.61950803 1.6901622 263423
-0.22791773 -0.61950797 1.6901622 263423
-0.22485843 -0.61950809 1.6901622 263423
-0.22179914 -0.61950797 1.6901622 263423
-0.21873985 -0.61950803 1.6901622 263423
-0.21568054 -0.61950803 1.6901622 263423
-0.2126212 -0.61950791 1.6901619 263423
-0.2095619 -0.61950785 1.6901619 263423
-0.2065026 -0.61950791 1.6901621 263423
-0.2034433 -0.61950791 1.6901619 263423
-0.20038401 -0.61950785 1.6901619 263423
-0.19732471 -0.61950791 1.6901621 263423
-0.1942654 -0.61950791 1.6901618 197631
-0.1912061 -0.61950791 1.6901618 197631
-0.1881468 -0.61950791 1.6901618 197631
-0.18508755 -0.61950803 1.6901622 197631
-0.18202828 -0.61950815 1.6901625 197631
-0.17896901 -0.61950827 1.6901629 197631
-0.17590974 -0.61950839 1.690163 197628
-0.17285047 -0.6195085 1.6901636 197623
-0.16979118 -0.61950862 1.6901636 197617
-0.16673192 -0.61950874 1.6901641 131819
-0.16367264 -0.61950886 1.6901643 131813
-0.16061339 -0.61950892 1.6901646 131807
-0.15755409 -0.6195091 1.690165 131801
-0.15449484 -0.61950922 1.6901653 131794
-0.15143555 -0.61950934 1.6901658 131788
-0.14837627 -0.61950934 1.6901659 131787
-0.14726602 -0.62781858 1.7128353 134
-0.24534017 -0.61411238 1.6837567 197631
-0.24229246 -0.61411232 1.6837566 263423
-0.23924476 -0.61411238 1.6837566 263423
-0.23619702 -0.6141125 1.6837566 263423
-0.23314933 -0.61411244 1.6837565 263423
-0.23010163 -0.61411244 1.6837566 263423
-0.22705391 -0.6141125 1.6837566 263423
-0.22400621 -0.61411238 1.6837565 263423
-0.2209585 -0.61411244 1.6837566 263423
-0.21791081 -0.6141125 1.6837565 263423
-0.21486308 -0.61411238 1.6837564 263423
-0.21181537 -0.61411238 1.6837564 263423
-0.20876767 -0.61411238 1.6837564 263423
-0.20571998 -0.61411238 1.6837564 263423
-0.20267226 -0.61411238 1.6837564 263423
-0.19962455 -0.61411238 1.6837564 263423
-0.19657682 -0.61411226 1.6837561 263423
-0.19352913 -0.61411226 1.6837561 263423
-0.19048141 -0.6141122 1.6837561 263423
-0.1874337 -0.61411226 1.6837561 263423
-0.184386 -0.61411226 1.6837561 263423
-0.1813383 -0.6141122 1.6837561 197631
-0.17829062 -0.61411238 1.6837564 197631
-0.17524295 -0.61411238 1.6837566 197631
-0.17219526 -0.6141125 1.6837568 197631
-0.1691476 -0.61411256 1.6837572 197628
-0.16609991 -0.61411279 1.6837575 197622
-0.16305222 -0.61411285 1.6837578 197617
-0.16000457 -0.61411297 1.683758 197611
-0.1569569 -0.61411321 1.6837586 131813
-0.15390921 -0.61411321 1.6837585 131807
-0.15086152 -0.61411333 1.683759 131801
-0.14781386 -0.61411345 1.6837595 131799
-0.14726935 -0.62473238 1.7128739 138
-0.24441385 -0.60875762 1.6773993 263423
-0.24137767 -0.60875762 1.6773992 263423
-0.23834147 -0.60875762 1.6773993 263423
-0.23530525 -0.6087575 1.6773992 263423
-0.23226905 -0.60875756 1.6773992 263423
-0.22923285 -0.6087575 1.6773992 263423
-0.22619666 -0.6087575 1.6773992 263423
-0.22316046 -0.6087575 1.6773992 263423
-0.22012426 -0.6087575 1.6773992 263423
-0.21708804 -0.6087575 1.6773992 263423
-0.21405186 -0.6087575 1.6773992 329215
-0.21101566 -0.6087575 1.677399 329215
-0.20797946 -0.6087575 1.6773992 329215
-0.20494325 -0.60875744 1.677399 329215
-0.20190707 -0.6087575 1.6773992 263423
-0.19887082 -0.60875738 1.6773987 263423
-0.19583464 -0.60875744 1.6773988 263423
-0.19279844 -0.60875738 1.6773987 263423
-0.18976225 -0.60875738 1.6773988 263423
-0.18672603 -0.60875738 1.6773987 263423
-0.18368985 -0.60875738 1.6773988 263423
-0.18065365 -0.60875726 1.6773987 263423
-0.17761745 -0.60875732 1.6773987 263423
-0.17458123 -0.60875726 1.6773987 263423
-0.17154504 -0.60875732 1.6773987 197631
-0.16850889 -0.6087575 1.6773992 197631
-0.1654727 -0.60875762 1.6773992 197631
-0.16243654 -0.60875767 1.6773996 197625
-0.15940037 -0.60875785 1.6774001 197620
-0.15636419 -0.60875797 1.6774001 197614
-0.15332802 -0.60875809 1.6774005 197609
-0.15029186 -0.60875815 1.6774008 197603
-0.14732648 -0.60905099 1.6782076 131804
-0.14727268 -0.62164599 1.7129126 142
-0.2465193 -0.60344291 1.6710899 3482059
-0.24349451 -0.60344285 1.6710899 263423
-0.24046974 -0.60344291 1.6710899 263423
-0.23744491 -0.60344291 1.6710896 263423
-0.23442015 -0.60344291 1.6710896 263423
-0.23139536 -0.60344285 1.6710896 263423
-0.22837059 -0.60344291 1.6710896 263423
-0.22534581 -0.60344297 1.6710898 263423
-0.22232105 -0.60344291 1.6710896 263423
-0.21929623 -0.60344279 1.6710896 329215
-0.21627147 -0.60344291 1.6710896 329215
-0.21324669 -0.60344285 1.6710896 329215
-0.21022192 -0.60344279 1.6710896 329215
-0.20719713 -0.60344285 1.6710896 329215
-0.20417237 -0.60344279 1.6710896 329215
-0.20114756 -0.60344273 1.6710894 329215
-0.1981228 -0.60344267 1.6710893 329215
-0.19509801 -0.60344279 1.6710894 329215
-0.19207324 -0.60344279 1.6710894 329215
-0.18904845 -0.60344279 1.6710894 329215
-0.1860237 -0.60344279 1.6710894 263423
-0.18299888 -0.60344279 1.6710892 263423
-0.17997411 -0.60344279 1.6710893 263423
-0.17694932 -0.60344273 1.6710892 263423
-0.17392455 -0.60344267 1.6710892 263423
-0.17089978 -0.60344279 1.6710892 263423
-0.16787501 -0.60344279 1.6710892 263423
-0.16485021 -0.60344267 1.6710889 263423
-0.16182546 -0.60344279 1.6710894 197631
-0.15880071 -0.60344291 1.6710896 197627
-0.15577596 -0.60344285 1.6710899 197622
-0.15275121 -0.60344315 1.6710902 197616
-0.14972645 -0.60344315 1.6710904 197611
-0.14732975 -0.60602677 1.6782448 197598
-0.14727598 -0.61855936 1.7129512 143
-0.24559548 -0.59816825 1.6648276 263420
-0.24258204 -0.59816819 1.6648276 263423
-0.23956858 -0.59816813 1.6648275 263423
-0.23655511 -0.59816813 1.6648276 263423
-0.2335417 -0.59816813 1.6648276 263423
-0.23052825 -0.59816813 1.6648275 263423
-0.2275148 -0.59816813 1.6648276 263423
-0.22450136 -0.59816813 1.6648276 263423
-0.22148789 -0.59816796 1.6648272 329215
-0.21847445 -0.59816802 1.6648273 329215
-0.21546102 -0.59816802 1.6648273 329215
-0.21244755 -0.59816802 1.6648272 329215
-0.20943412 -0.59816796 1.6648271 329215
-0.20642067 -0.5981679 1.6648271 329215
-0.20340723 -0.59816796 1.6648271 329215
-0.20039378 -0.59816802 1.6648271 329215
-0.19738035 -0.59816802 1.6648271 329215
-0.19436689 -0.59816796 1.6648271 329215
-0.19135347 -0.59816802 1.6648271 329215
-0.18834001 -0.59816802 1.6648271 329215
-0.18532658 -0.59816802 1.664827 329215
-0.18231311 -0.59816802 1.6648269 329215
-0.17929968 -0.59816802 1.6648271 263423
-0.17628624 -0.59816802 1.664827 263423
-0.1732728 -0.59816802 1.664827 263423
-0.17025934 -0.59816796 1.664827 263423
-0.16724589 -0.59816778 1.6648268 263423
-0.16423245 -0.59816778 1.6648268 263423
-0.161219 -0.59816778 1.6648266 263423
-0.15820557 -0.59816778 1.6648266 263423
-0.15519214 -0.59816778 1.6648268 197627
-0.15217872 -0.59816802 1.6648271 197622
-0.14916529 -0.59816813 1.6648276 197616
-0.14733301 -0.60300243 1.678282 197596
-0.14727931 -0.61547267 1.7129897 143
-0.24467857 -0.59293282 1.6586121 263416
-0.24167636 -0.59293276 1.658612 263420
-0.23867416 -0.59293276 1.658612 263423
-0.23567198 -0.59293282 1.658612 263423
-0.23266977 -0.59293276 1.658612 263423
-0.2296676 -0.59293276 1.658612 263423
-0.22666539 -0.59293276 1.658612 263423
-0.22366318 -0.5929327 1.6586119 263423
-0.220661 -0.5929327 1.6586119 329215
-0.21765882 -0.5929327 1.6586118 329215
-0.21465661 -0.59293282 1.658612 329215
-0.21165442 -0.59293282 1.6586119 329215
-0.20865223 -0.59293282 1.6586119 329215
-0.20565002 -0.59293258 1.6586118 329215
-0.20264782 -0.59293258 1.6586117 329215
-0.19964562 -0.59293258 1.6586118 329215
-0.19664343 -0.59293258 1.6586118 329215
-0.19364126 -0.59293258 1.6586117 329215
-0.19063905 -0.59293258 1.6586117 329215
-0.18763685 -0.5929327 1.6586115 329215
-0.18463466 -0.5929327 1.6586115 329215
-0.18163246 -0.5929327 1.6586115 329215
-0.17863028 -0.59293264 1.6586115 329215
-0.17562808 -0.59293264 1.6586115 329215
-0.1726259 -0.59293258 1.6586115 263423
-0.16962369 -0.59293252 1.6586114 263423
-0.16662151 -0.59293258 1.6586113 263423
-0.16361931 -0.59293252 1.6586113 263423
-0.16061711 -0.59293258 1.6586114 263423
-0.15761492 -0.59293258 1.6586114 263423
-0.15461273 -0.59293258 1.6586114 263422
-0.15161051 -0.59293246 1.6586112 263418
-0.14860834 -0.59293246 1.6586112 197621
-0.14733624 -0.59997761 1.6783189 197596
-0.14728263 -0.61238587 1.7130283 140
-0.24494159 -0.59056473 1.6603951 263409
-0.24193548 -0.590563 1.6603903 263413
-0.23892938 -0.59056127 1.6603855 263418
-0.23592331 -0.59055966 1.6603807 263422
-0.23291722 -0.59055793 1.660376 263423
-0.22991119 -0.59055626 1.6603712 263423
-0.22690515 -0.59055448 1.6603663 263423
-0.22389913 -0.59055293 1.6603615 263423
-0.22089311 -0.59055108 1.6603565 329215
-0.21788713 -0.59054929 1.6603518 329215
-0.21488118 -0.59054756 1.660347 329215
-0.21187524 -0.59054595 1.6603423 329215
-0.20886931 -0.59054422 1.6603374 329215
-0.20586342 -0.59054255 1.6603327 329215
-0.20285751 -0.59054089 1.6603278 329215
-0.19985162 -0.59053922 1.660323 329215
-0.19684575 -0.59053743 1.6603181 329215
-0.19383992 -0.5905357 1.6603134 329215
-0.19083411 -0.59053409 1.6603086 329215
-0.1878283 -0.59053236 1.660304 329215
-0.18482251 -0.59053051 1.6602988 329215
-0.18181673 -0.59052896 1.6602943 329215
-0.178811 -0.59052712 1.6602893 329215
-0.17580526 -0.59052551 1.6602848 329215
-0.17279951 -0.59052366 1.6602796 329215
-0.16979381 -0.59052205 1.6602749 263423
-0.16678813 -0.59052038 1.6602701 263423
-0.16378246 -0.59051859 1.6602654 263423
-0.16077682 -0.59051692 1.6602604 263423
-0.15777119 -0.59051526 1.6602557 263423
-0.15476558 -0.59051347 1.660251 263421
-0.15175997 -0.59051186 1.6602461 263416
-0.14875437 -0.59051013 1.6602414 263412
-0.14733951 -0.59695303 1.6783562 197592
-0.14728592 -0.60929894 1.7130668 135
-0.24522932 -0.58824962 1.6623455 197614
-0.24221972 -0.5882479 1.6623409 263406
-0.23921007 -0.58824623 1.6623362 263411
-0.23620045 -0.5882445 1.6623313 263415
-0.23319086 -0.58824277 1.6623266 263420
-0.23018128 -0.58824122 1.6623216 263423
-0.22717172 -0.58823937 1.6623169 263423
-0.22416216 -0.58823776 1.6623122 263423
-0.22115263 -0.58823609 1.6623073 263423
-0.21814314 -0.58823431 1.6623024 329215
-0.21513362 -0.58823264 1.6622977 329215
-0.21212415 -0.58823091 1.6622927 329215
-0.20911469 -0.58822912 1.6622881 329215
-0.20610523 -0.58822739 1.6622832 329215
-0.20309582 -0.58822572 1.6622784 329215
-0.2000864 -0.58822405 1.6622735 329215
-0.19707704 -0.58822232 1.6622688 329215
-0.19406764 -0.5882206 1.6622639 329215
-0.19105831 -0.58821905 1.6622591 329215
-0.18804897 -0.58821732 1.6622543 329215
-0.18503964 -0.58821553 1.6622496 329215
-0.18203032 -0.5882138 1.6622446 329215
-0.17902103 -0.58821213 1.6622399 329215
-0.17601177 -0.58821046 1.662235 329215
-0.17300253 -0.58820873 1.6622303 329215
-0.16999327 -0.58820701 1.6622252 263423
-0.16698408 -0.5882054 1.6622205 263423
-0.16397487 -0.58820361 1.6622157 263423
-0.1609657 -0.58820194 1.6622109 263423
-0.15795653 -0.58820021 1.6622061 263423
-0.15494739 -0.58819848 1.6622014 263412
-0.15193826 -0.58819675 1.6621966 197606
-0.14892913 -0.58819509 1.6621916 197605
-0.14734277 -0.59392822 1.6783931 131790
-0.14728926 -0.6062119 1.7131054 133
-0.24551776 -0.58592898 1.6643008 197609
-0.2425046 -0.58592725 1.6642959 197611
-0.2394914 -0.58592558 1.664291 263404
-0.23647828 -0.58592397 1.6642866 263408
-0.23346515 -0.58592224 1.6642818 263413
-0.23045202 -0.58592051 1.6642771 263417
-0.22743891 -0.5859189 1.6642721 263422
-0.22442581 -0.58591712 1.6642673 263423
-0.22141276 -0.58591539 1.6642625 263423
-0.2183997 -0.58591372 1.6642575 263423
-0.21538666 -0.58591199 1.6642528 329215
-0.21237366 -0.58591044 1.664248 329215
-0.20936064 -0.58590859 1.6642431 329215
-0.20634767 -0.58590698 1.6642385 329215
-0.20333469 -0.58590531 1.6642334 329215
-0.20032173 -0.58590358 1.6642287 329215
-0.19730882 -0.58590192 1.6642238 329215
-0.19429588 -0.58590007 1.6642189 329215
-0.19128302 -0.58589852 1.6642141 329215
-0.18827012 -0.58589667 1.6642095 329215
-0.18525727 -0.58589506 1.6642046 329215
-0.18224442 -0.58589333 1.6641997 329215
-0.17923158 -0.58589166 1.6641948 329215
-0.17621879 -0.58588994 1.6641901 329215
-0.17320599 -0.58588821 1.6641852 329215
-0.17019321 -0.5858866 1.6641803 263423
-0.16718048 -0.58588481 1.6641755 263423
-0.16416773 -0.5858832 1.6641709 263423
-0.161155 -0.58588147 1.6641657 263423
-0.15814231 -0.58587974 1.664161 263422
-0.15512963 -0.58587801 1.6641562 263415
-0.15211695 -0.58587646 1.6641514 197612
-0.14910428 -0.58587468 1.6641465 197609
-0.147346 -0.59090328 1.6784301 131775
-0.1472926 -0.6031248 1.7131444 65925
-0.24580686 -0.58360273 1.6662604 197605
-0.24279016 -0.58360118 1.6662557 197607
-0.23977344 -0.58359963 1.6662512 197608
-0.23675674 -0.58359796 1.6662463 263401
-0.23374008 -0.58359623 1.6662416 263405
-0.23072341 -0.58359462 1.6662369 263409
-0.22770675 -0.58359289 1.6662321 263414
-0.22469009 -0.58359116 1.6662272 263419
-0.2216735 -0.58358943 1.6662223 263423
-0.21865691 -0.58358783 1.6662174 263423
-0.21564031 -0.5835861 1.6662126 263423
-0.21262373 -0.58358425 1.6662077 329215
-0.20960718 -0.58358264 1.666203 329215
-0.20659065 -0.58358103 1.6661981 329215
-0.20357414 -0.5835793 1.6661932 329215
-0.20055762 -0.58357763 1.6661884 329215
-0.19754118 -0.58357596 1.6661835 329215
-0.19452469 -0.58357418 1.6661787 329215
-0.19150825 -0.58357245 1.6661739 329215
-0.18849184 -0.58357078 1.666169 329215
-0.18547542 -0.58356911 1.6661642 329215
-0.18245903 -0.58356744 1.6661596 329215
-0.17944263 -0.58356565 1.6661544 329215
-0.17642628 -0.58356398 1.6661496 329215
-0.17340997 -0.58356231 1.6661448 329215
-0.17039363 -0.58356071 1.6661401 263423
-0.16737732 -0.58355898 1.6661351 263423
-0.16436103 -0.58355731 1.6661303 263423
-0.16134477 -0.58355558 1.6661255 263423
-0.15832853 -0.58355391 1.6661208 263419
-0.15531228 -0.58355218 1.6661158 263414
-0.15229607 -0.58355045 1.6661108 263408
-0.14927985 -0.58354872 1.6661062 263405
-0.14734887 -0.58787668 1.6784626 131781
-0.14729591 -0.60003722 1.7131827 65930
-0.24609667 -0.58127135 1.668225 197600
-0.24307637 -0.58126974 1.6682202 197602
-0.24005611 -0.58126813 1.6682155 197603
-0.23703587 -0.5812664 1.6682107 197605
-0.23401563 -0.58126462 1.668206 263398
-0.23099545 -0.58126324 1.6682014 263401
-0.22797522 -0.58126134 1.6681964 263406
-0.22495501 -0.58125961 1.6681916 263410
-0.22193483 -0.581258 1.6681867 263415
-0.21891467 -0.58125633 1.6681819 263420
-0.21589455 -0.5812546 1.6681771 263423
-0.2128744 -0.58125281 1.6681721 263423
-0.20985432 -0.58125126 1.6681675 329215
-0.20683423 -0.58124954 1.6681623 329215
-0.20381416 -0.58124787 1.6681577 329215
-0.20079409 -0.58124602 1.6681527 329215
-0.19777407 -0.58124447 1.668148 329215
-0.19475402 -0.58124286 1.668143 329215
-0.19173405 -0.58124107 1.6681383 329215
-0.18871403 -0.58123934 1.6681333 329215
-0.18569408 -0.58123773 1.6681285 329215
-0.18267412 -0.58123606 1.6681237 329215
-0.17965421 -0.58123422 1.668119 329215
-0.1766343 -0.58123267 1.6681139 329215
-0.1736144 -0.58123094 1.6681092 329215
-0.17059451 -0.58122927 1.6681042 329215
-0.16757463 -0.5812276 1.6680995 263423
-0.1645548 -0.58122587 1.6680945 263423
-0.16153498 -0.58122414 1.6680896 263421
-0.15851517 -0.58122247 1.6680849 263416
-0.15549539 -0.58122069 1.6680799 263411
-0.15247561 -0.58121926 1.6680751 263407
-0.14945586 -0.58121753 1.6680703 263402
-0.14735173 -0.58484983 1.6784953 131788
-0.14729923 -0.5969497 1.7132213 65933
-0.24638714 -0.57893425 1.670194 3614132
-0.24336331 -0.57893264 1.6701894 197597
-0.24033946 -0.57893085 1.6701844 197599
-0.23731562 -0.57892925 1.6701798 197600
-0.23429185 -0.5789277 1.6701751 197601
-0.23126806 -0.57892603 1.6701703 263395
-0.2282443 -0.57892448 1.6701655 263397
-0.22522056 -0.57892275 1.6701608 263402
-0.22219682 -0.57892102 1.6701558 263406
-0.21917307 -0.57891929 1.670151 263411
-0.21614937 -0.57891774 1.670146 263416
-0.21312569 -0.57891607 1.6701413 263420
-0.21010201 -0.57891428 1.6701362 263423
-0.20707835 -0.57891256 1.6701317 329215
-0.20405473 -0.57891089 1.6701267 329215
-0.2010311 -0.57890928 1.6701218 329215
-0.19800749 -0.57890755 1.6701169 329215
-0.19498391 -0.57890582 1.6701121 329215
-0.19196035 -0.57890421 1.6701072 329215
-0.18893678 -0.57890236 1.6701024 329215
-0.18591328 -0.57890075 1.6700974 329215
-0.18288974 -0.57889903 1.6700926 329215
-0.17986627 -0.57889748 1.6700878 329215
-0.17684278 -0.57889575 1.6700828 329215
-0.1738193 -0.57889402 1.6700779 329215
-0.17079587 -0.57889229 1.6700732 263423
-0.16777244 -0.57889074 1.6700684 263423
-0.16474903 -0.57888895 1.6700633 263422
-0.16172564 -0.57888716 1.6700585 263417
-0.15870227 -0.57888556 1.6700537 263413
-0.15567891 -0.57888389 1.670049 263408
-0.15265556 -0.57888234 1.6700439 263403
-0.14963223 -0.57888049 1.6700391 263399
-0.14735462 -0.58182305 1.6785281 197586
-0.14730254 -0.59386212 1.7132602 65935
-0.24667831 -0.57659173 1.6721678 3614129
-0.2436509 -0.57659 1.672163 197592
-0.24062349 -0.57658839 1.6721584 197594
-0.23759609 -0.57658678 1.6721535 197595
-0.23456872 -0.57658523 1.6721488 197596
-0.23154137 -0.5765835 1.6721439 197597
-0.22851405 -0.57658184 1.6721393 197599
-0.22548671 -0.57658023 1.6721345 263392
-0.22245939 -0.57657856 1.6721296 263397
-0.21943207 -0.57657683 1.6721246 263401
-0.21640481 -0.5765751 1.6721199 263406
-0.21337755 -0.57657343 1.6721148 263411
-0.2103503 -0.57657188 1.6721102 263415
-0.20732306 -0.57657009 1.6721052 263419
-0.20429586 -0.57656837 1.6721003 263423
-0.20126866 -0.57656676 1.6720955 329215
-0.19824149 -0.57656497 1.6720905 329215
-0.19521432 -0.57656324 1.6720855 329215
-0.19218719 -0.57656175 1.672081 329215
-0.18916006 -0.57656002 1.672076 329215
-0.18613295 -0.57655835 1.672071 329215
-0.18310587 -0.57655656 1.6720662 329215
-0.1800788 -0.57655501 1.6720613 329215
-0.17705175 -0.57655329 1.6720564 329215
-0.17402472 -0.57655162 1.6720514 329215
-0.17099768 -0.57654989 1.6720468 263423
-0.16797069 -0.57654828 1.6720419 263422
-0.16494371 -0.57654655 1.672037 263418
-0.16191673 -0.57654488 1.6720321 263413
-0.1588898 -0.57654327 1.6720271 263409
-0.15586288 -0.57654142 1.6720223 263404
-0.15283597 -0.57653993 1.6720175 263399
-0.14980905 -0.57653821 1.6720126 263395
-0.14735746 -0.57879609 1.6785606 197592
-0.14730586 -0.5907743 1.7132986 65929
-0.24697018 -0.57424355 1.6741462 3679918
-0.24393915 -0.57424188 1.6741414 197587
-0.24090815 -0.57424021 1.6741364 197588
-0.23787721 -0.57423866 1.6741319 197590
-0.23484623 -0.57423693 1.6741269 197591
-0.23181529 -0.57423544 1.6741222 197592
-0.22878438 -0.57423365 1.6741176 197593
-0.22575347 -0.57423198 1.6741127 197594
-0.2227226 -0.57423049 1.674108 263387
-0.21969168 -0.5742287 1.674103 263392
-0.21666084 -0.57422709 1.6740981 263396
-0.21362998 -0.57422537 1.6740932 263401
-0.21059917 -0.57422376 1.6740885 263405
-0.20756836 -0.57422209 1.6740835 263409
-0.20453756 -0.57422042 1.6740787 263413
-0.20150679 -0.57421863 1.6740737 263417
-0.19847603 -0.57421702 1.6740689 329213
-0.19544528 -0.57421547 1.6740639 329215
-0.19241457 -0.57421362 1.6740589 329215
-0.18938383 -0.57421196 1.6740543 329215
-0.18635316 -0.57421029 1.6740494 329215
-0.18332249 -0.57420868 1.6740444 329215
-0.18029185 -0.57420701 1.6740396 329215
-0.17726122 -0.57420528 1.6740346 329215
-0.17423059 -0.57420373 1.6740298 329215
-0.17119999 -0.57420194 1.6740248 263420
-0.16816942 -0.57420021 1.6740201 263416
-0.16513884 -0.5741986 1.674015 263412
-0.1621083 -0.57419676 1.6740103 263408
-0.15907776 -0.57419527 1.6740053 263404
-0.15604727 -0.57419354 1.6740004 263399
-0.15301676 -0.57419181 1.6739955 263395
-0.1499863 -0.57419026 1.6739907 197599
-0.14736034 -0.57576901 1.6785934 197589
-0.14730912 -0.58768618 1.7133365 65926
-0.2472627 -0.57188982 1.6761293 7162246
-0.24422807 -0.57188821 1.6761243 197582
-0.24119353 -0.57188654 1.6761197 197583
-0.23815896 -0.57188487 1.6761148 197584
-0.23512439 -0.57188332 1.67611 197585
-0.23208989 -0.57188171 1.6761053 197586
-0.22905536 -0.57187992 1.6761003 197587
-0.22602087 -0.57187837 1.6760956 197588
-0.22298642 -0.57187676 1.6760908 197589
-0.21995193 -0.57187515 1.6760862 197590
-0.21691747 -0.57187337 1.6760812 263386
-0.21388304 -0.57187188 1.6760763 263390
-0.21084863 -0.57187015 1.6760714 263394
-0.20781423 -0.57186854 1.6760666 263399
-0.20477982 -0.57186669 1.6760616 263403
-0.20174548 -0.5718652 1.6760569 263407
-0.19871113 -0.57186341 1.6760519 263410
-0.1956768 -0.5718618 1.676047 263413
-0.19264248 -0.57186007 1.6760421 329208
-0.18960817 -0.57185829 1.6760371 329210
-0.18657391 -0.57185674 1.6760323 329211
-0.18353966 -0.57185513 1.6760273 329211
-0.18050541 -0.57185346 1.6760223 329211
-0.17747118 -0.57185173 1.6760175 329209
-0.17443696 -0.57185018 1.6760125 263416
-0.1714028 -0.57184839 1.676008 263413
-0.16836862 -0.57184672 1.6760027 263410
-0.16533445 -0.57184505 1.675998 263406
-0.16230032 -0.57184345 1.6759932 263402
-0.15926619 -0.57184172 1.6759882 263398
-0.1562321 -0.57184011 1.6759832 263394
-0.15319802 -0.57183838 1.6759783 263390
-0.15016395 -0.57183677 1.6759735 197594
-0.14736323 -0.57274181 1.6786262 197587
-0.14731205 -0.58459651 1.7133708 65924
-0.24451774 -0.56952894 1.6781123 197576
-0.24147958 -0.56952727 1.6781073 197577
-0.23844139 -0.56952572 1.6781027 197578
-0.23540325 -0.56952411 1.6780977 197579
-0.2323651 -0.56952232 1.678093 197580
-0.22932702 -0.56952077 1.6780882 197581
-0.22628891 -0.5695191 1.6780834 197582
-0.22325084 -0.56951749 1.6780785 197583
-0.22021277 -0.56951594 1.6780739 197583
-0.21717472 -0.56951421 1.6780689 197584
-0.21413669 -0.56951261 1.678064 263380
-0.2110987 -0.56951106 1.6780591 263384
-0.2080607 -0.56950927 1.6780543 263388
-0.20502271 -0.5695076 1.6780496 263392
-0.20198472 -0.56950581 1.6780444 263395
-0.19894677 -0.56950432 1.6780396 263399
-0.19590886 -0.56950259 1.6780348 263402
-0.19287094 -0.56950092 1.6780298 263405
-0.18983305 -0.56949937 1.6780248 263407
-0.18679516 -0.56949759 1.6780198 263408
-0.18375732 -0.56949598 1.678015 263409
-0.18071948 -0.56949425 1.6780099 263409
-0.17768162 -0.56949264 1.6780051 263409
-0.17464383 -0.56949091 1.6780003 263407
-0.17160605 -0.56948924 1.6779954 263405
-0.16856827 -0.56948763 1.6779903 263402
-0.16553053 -0.56948596 1.6779855 263399
-0.1624928 -0.56948429 1.6779807 263396
-0.15945509 -0.56948274 1.6779758 263392
-0.15641737 -0.56948102 1.6779709 263388
-0.15337971 -0.56947923 1.6779659 263384
-0.15034203 -0.56947756 1.677961 197588
-0.14736609 -0.56971443 1.6786587 197583
-0.147315 -0.58150673 1.7134049 65921
-0.24480809 -0.56716418 1.6801047 197571
-0.24176629 -0.56716251 1.6801001 197572
-0.23872451 -0.56716079 1.680095 197572
-0.23568277 -0.56715918 1.6800904 197573
-0.23264101 -0.56715757 1.6800854 197574
-0.22959931 -0.56715596 1.6800807 197575
-0.22655757 -0.56715429 1.6800756 197576
-0.22351591 -0.56715268 1.680071 197576
-0.22047424 -0.56715095 1.6800661 197577
-0.21743257 -0.56714946 1.6800612 197578
-0.21439095 -0.56714767 1.6800565 197577
-0.21134932 -0.56714612 1.6800518 197581
-0.20830773 -0.56714469 1.6800468 263377
-0.20526616 -0.56714284 1.6800419 263380
-0.20222455 -0.56714112 1.6800368 263384
-0.19918299 -0.56713945 1.680032 263387
-0.19614147 -0.56713784 1.680027 263391
-0.19309996 -0.56713629 1.6800222 263393
-0.19005844 -0.5671345 1.680017 263396
-0.18701695 -0.56713283 1.6800122 263397
-0.18397549 -0.56713116 1.6800073 263398
-0.18093406 -0.56712949 1.6800025 263399
-0.17789261 -0.56712788 1.6799974 263399
-0.17485119 -0.56712633 1.6799926 263398
-0.17180979 -0.56712455 1.6799877 263396
-0.16876842 -0.56712288 1.6799829 263394
-0.16572705 -0.56712133 1.6799779 263391
-0.16268571 -0.56711948 1.6799729 263388
-0.15964441 -0.56711793 1.6799681 263385
-0.1566031 -0.56711638 1.6799631 263381
-0.15356182 -0.56711453 1.6799581 197585
-0.15052053 -0.56711292 1.6799532 197582
-0.14747928 -0.56711137 1.6799483 197579
-0.14731792 -0.57841682 1.7134389 65918
-0.24509908 -0.56479359 1.682102 197565
-0.24205369 -0.56479198 1.682097 197566
-0.23900829 -0.56479025 1.6820923 197566
-0.23596293 -0.56478876 1.6820874 197567
-0.23291756 -0.56478703 1.6820827 197568
-0.22987223 -0.56478548 1.6820779 197569
-0.22682691 -0.56478381 1.6820729 197569
-0.22378159 -0.56478214 1.6820679 197570
-0.22073632 -0.56478065 1.6820633 197570
-0.21769106 -0.56477898 1.6820586 197571
-0.2146458 -0.56477731 1.6820536 197571
-0.21160057 -0.56477582 1.6820488 197570
-0.20855536 -0.56477404 1.6820439 197574
-0.20551015 -0.56477249 1.682039 197577
-0.20246497 -0.56477082 1.6820341 263372
-0.19941977 -0.56476909 1.682029 263375
-0.19637464 -0.5647676 1.6820244 263379
-0.19332951 -0.56476581 1.6820192 263381
-0.1902844 -0.56476426 1.6820145 263384
-0.18723927 -0.56476253 1.6820092 263386
-0.18419419 -0.56476086 1.6820045 263387
-0.18114915 -0.56475925 1.6819994 263388
-0.17810407 -0.56475759 1.6819947 263388
-0.17505904 -0.56475592 1.6819898 263387
-0.17201406 -0.56475437 1.6819847 263386
-0.16896905 -0.56475258 1.6819799 263384
-0.16592407 -0.56475097 1.6819749 263382
-0.16287909 -0.56474936 1.68197 263380
-0.15983418 -0.56474757 1.6819651 263377
-0.15678924 -0.56474602 1.6819601 263374
-0.15374435 -0.56474429 1.6819553 197578
-0.15069945 -0.56474268 1.6819503 197575
-0.14765459 -0.56474102 1.6819453 197573
-0.14732085 -0.5753268 1.7134728 65913
-0.2453908 -0.56241745 1.684104 131767
-0.24234176 -0.56241584 1.684099 197560
-0.23929274 -0.56241411 1.6840941 197560
-0.23624375 -0.56241256 1.6840894 197561
-0.23319477 -0.56241089 1.6840845 197562
-0.23014583 -0.5624094 1.6840796 197562
-0.22709687 -0.56240779 1.684075 197563
-0.22404794 -0.56240618 1.6840701 197563
-0.22099903 -0.56240445 1.6840651 197563
-0.21795014 -0.5624029 1.6840603 197564
-0.21490125 -0.56240118 1.6840556 197564
-0.21185239 -0.56239969 1.6840506 197564
-0.20880356 -0.56239814 1.6840458 197564
-0.20575476 -0.56239653 1.684041 197566
-0.20270593 -0.56239468 1.684036 197569
-0.19965714 -0.56239319 1.6840311 197572
-0.19660835 -0.56239152 1.684026 263367
-0.19355959 -0.56238991 1.6840212 263369
-0.19051085 -0.56238818 1.6840162 263371
-0.18746212 -0.56238657 1.6840112 263373
-0.1844134 -0.56238484 1.6840062 263375
-0.18136472 -0.56238323 1.6840014 263376
-0.17831606 -0.56238151 1.6839964 263376
-0.17526741 -0.56237996 1.6839916 263376
-0.17221875 -0.56237811 1.6839864 263375
-0.16917014 -0.56237668 1.6839815 263374
-0.16612154 -0.56237495 1.6839767 263373
-0.16307294 -0.56237328 1.6839716 263370
-0.1600244 -0.56237167 1.6839666 263368
-0.15697584 -0.56237006 1.6839617 197573
-0.15392733 -0.56236833 1.6839569 197570
-0.1508788 -0.56236666 1.6839519 197567
-0.14783032 -0.56236511 1.6839468 197566
-0.14732377 -0.57223678 1.7135069 65909
-0.24568319 -0.56003559 1.6861107 131761
-0.24263054 -0.56003398 1.6861057 131761
-0.23957789 -0.56003249 1.6861011 131762
-0.23652525 -0.5600307 1.686096 197554
-0.23347262 -0.56002909 1.6860909 197555
-0.23042007 -0.5600276 1.6860864 197555
-0.22736746 -0.56002593 1.6860814 197556
-0.2243149 -0.56002426 1.6860765 197556
-0.22126237 -0.56002277 1.6860718 197556
-0.21820982 -0.56002116 1.6860669 197557
-0.21515732 -0.56001949 1.6860621 197557
-0.21210481 -0.56001794 1.6860571 197557
-0.20905235 -0.56001627 1.6860523 197556
-0.20599991 -0.56001467 1.6860473 197556
-0.20294747 -0.56001312 1.6860428 197557
-0.19989505 -0.56001145 1.6860378 197560
-0.19684263 -0.56000984 1.6860328 197563
-0.19379021 -0.56000817 1.6860278 197565
-0.19073786 -0.5600065 1.686023 197567
-0.18768549 -0.56000489 1.686018 263361
-0.18463317 -0.56000316 1.686013 263363
-0.18158083 -0.56000155 1.686008 263364
-0.17852853 -0.55999988 1.686003 263364
-0.17547625 -0.55999827 1.6859981 263365
-0.17242396 -0.55999666 1.685993 263364
-0.16937172 -0.55999488 1.6859881 263363
-0.16631947 -0.55999333 1.6859832 263362
-0.16326727 -0.55999172 1.6859784 197569
-0.16021506 -0.55998993 1.6859732 197567
-0.15716287 -0.55998826 1.6859683 197564
-0.15411074 -0.55998677 1.6859633 197562
-0.15105858 -0.5599851 1.6859585 197559
-0.14800647 -0.55998343 1.6859534 197559
-0.14732671 -0.56914645 1.7135409 65907
-0.24597631 -0.55764824 1.6881223 131755
-0.24292 -0.55764651 1.6881173 131755
-0.23986369 -0.5576449 1.6881123 131756
-0.23680744 -0.55764335 1.6881076 131756
-0.23375119 -0.55764174 1.6881027 131756
-0.23069492 -0.55764019 1.6880977 197549
-0.22763872 -0.55763853 1.6880929 197549
-0.22458249 -0.55763686 1.6880881 197549
-0.22152632 -0.55763531 1.6880832 197549
-0.21847017 -0.55763376 1.6880784 197549
-0.215414 -0.55763215 1.6880736 197549
-0.21235785 -0.55763042 1.6880686 197549
-0.20930175 -0.55762887 1.6880639 197549
-0.20624566 -0.5576272 1.6880589 197549
-0.20318957 -0.55762565 1.6880538 197548
-0.2001335 -0.55762416 1.6880493 197549
-0.19707748 -0.55762243 1.6880443 197551
-0.1940214 -0.5576207 1.6880391 197553
-0.19096541 -0.55761909 1.6880343 197555
-0.18790941 -0.55761743 1.6880293 197557
-0.18485343 -0.55761582 1.6880243 197558
-0.18179744 -0.55761427 1.6880193 197560
-0.17874151 -0.55761254 1.6880143 197560
-0.17568558 -0.55761099 1.6880095 197561
-0.17262968 -0.55760932 1.6880045 197561
-0.16957375 -0.55760759 1.6879994 197560
-0.1665179 -0.55760592 1.6879944 197559
-0.16346204 -0.55760431 1.6879897 197558
-0.16040622 -0.55760276 1.6879847 197557
-0.15735039 -0.55760109 1.6879797 197555
-0.15429458 -0.55759943 1.6879747 197553
-0.15123878 -0.55759782 1.6879697 197551
-0.14818303 -0.55759621 1.6879647 197551
-0.14732963 -0.56605619 1.7135751 65905
-0.24627009 -0.55525494 1.6901383 3679883
-0.24321015 -0.55525345 1.6901338 131749
-0.2401502 -0.55525172 1.6901288 131749
-0.23709026 -0.55525023 1.6901238 131749
-0.23403037 -0.5552485 1.690119 131750
-0.2309705 -0.55524707 1.6901143 131750
-0.22791062 -0.55524534 1.6901093 131750
-0.22485076 -0.55524379 1.6901045 131750
-0.22179092 -0.55524212 1.6900995 197542
-0.21873109 -0.55524051 1.6900947 197542
-0.2156713 -0.55523896 1.6900899 197542
-0.2126115 -0.55523723 1.6900848 197541
-0.20955174 -0.5552358 1.6900799 197541
-0.20649198 -0.55523413 1.6900749 197541
-0.20343228 -0.55523258 1.6900702 197540
-0.20037255 -0.55523092 1.6900654 197540
-0.19731286 -0.55522937 1.6900605 197540
-0.19425318 -0.55522776 1.6900556 197542
-0.19119351 -0.55522609 1.6900506 197543
-0.18813384 -0.55522448 1.6900456 197545
-0.18507423 -0.55522275 1.6900406 197546
-0.18201461 -0.5552212 1.6900357 197547
-0.178955 -0.55521947 1.6900306 197548
-0.17589542 -0.55521786 1.6900256 197549
-0.17283587 -0.55521625 1.6900206 197549
-0.16977631 -0.55521458 1.6900156 197549
-0.1667168 -0.55521297 1.6900105 197548
-0.16365728 -0.55521137 1.6900057 197547
-0.1605978 -0.55520976 1.6900009 197546
-0.15753831 -0.55520803 1.6899958 197545
-0.15447888 -0.55520654 1.6899909 197543
-0.15141943 -0.55520481 1.6899856 197542
-0.14836003 -0.5552032 1.689981 197544
-0.14733258 -0.56296575 1.7136092 65903
-0.24656461 -0.55285621 1.6921598 3614086
-0.24350099 -0.55285448 1.6921549 131742
-0.24043739 -0.55285287 1.69215 131743
-0.23737381 -0.55285126 1.6921451 131743
-0.23431024 -0.55284965 1.6921401 131743
-0.23124668 -0.55284804 1.6921352 131743
-0.22818317 -0.55284655 1.6921306 131743
-0.22511962 -0.55284488 1.6921256 131743
-0.22205615 -0.55284333 1.6921206 131743
-0.21899267 -0.55284166 1.6921157 131742
-0.2159292 -0.55284011 1.6921108 131742
-0.21286574 -0.55283856 1.6921058 131742
-0.20980233 -0.55283701 1.692101 197533
-0.20673892 -0.55283529 1.692096 197533
-0.20367552 -0.55283362 1.692091 197532
-0.20061214 -0.55283219 1.6920863 197532
-0.19754881 -0.55283046 1.6920815 197531
-0.19448547 -0.55282903 1.6920768 197530
-0.19142216 -0.55282736 1.6920717 197532
-0.18835883 -0.55282575 1.6920666 197533
-0.18529555 -0.55282402 1.6920617 197535
-0.18223228 -0.55282235 1.6920567 197536
-0.17916903 -0.55282086 1.6920518 197536
-0.17610577 -0.55281913 1.6920466 197537
-0.17304255 -0.55281746 1.6920416 197537
-0.16997935 -0.55281591 1.6920367 197537
-0.16691618 -0.5528143 1.6920317 197537
-0.16385297 -0.55281264 1.6920266 197537
-0.16078985 -0.55281097 1.6920218 197536
-0.15772672 -0.55280942 1.6920167 197535
-0.15466359 -0.55280769 1.6920116 197534
-0.15160051 -0.55280614 1.6920067 131733
-0.14853741 -0.55280441 1.6920018 131739
-0.14733547 -0.55987501 1.7136431 65900
-0.2468598 -0.55045134 1.6941856 3614082
-0.24379253 -0.55044985 1.6941808 131736
-0.24072526 -0.5504483 1.6941762 131736
-0.23765799 -0.55044651 1.694171 131736
-0.23459078 -0.55044502 1.6941662 131736
-0.23152354 -0.55044341 1.6941612 131736
-0.22845635 -0.55044186 1.6941563 131736
-0.22538917 -0.55044025 1.6941514 131736
-0.22232202 -0.55043864 1.6941465 131735
-0.21925484 -0.55043709 1.6941416 131735
-0.21618773 -0.55043542 1.6941367 131735
-0.21312058 -0.55043393 1.6941319 131734
-0.2100535 -0.55043232 1.6941268 131734
-0.20698646 -0.55043077 1.6941221 131733
-0.20391938 -0.55042922 1.6941171 131732
-0.20085233 -0.55042756 1.6941121 131732
-0.19778532 -0.55042589 1.6941073 131731
-0.19471832 -0.55042446 1.6941023 131730
-0.19165136 -0.55042267 1.6940975 131729
-0.18858436 -0.55042124 1.6940925 197522
-0.1855174 -0.55041951 1.6940875 197523
-0.18245044 -0.55041784 1.6940826 197524
-0.17938353 -0.55041623 1.6940775 197525
-0.1763166 -0.55041456 1.6940724 197526
-0.17324974 -0.55041307 1.6940675 197526
-0.17018285 -0.5504114 1.6940625 197526
-0.16711602 -0.55040979 1.6940575 197526
-0.16404916 -0.55040807 1.6940523 197526
-0.16098236 -0.55040652 1.6940475 197525
-0.15791555 -0.55040491 1.6940424 197524
-0.15484878 -0.55040336 1.6940377 131730
-0.15178199 -0.55040169 1.6940324 131727
-0.14871526 -0.55040002 1.6940274 131727
-0.14733842 -0.55678433 1.7136774 65895
-0.24715574 -0.54804093 1.6962165 7030631
-0.24408475 -0.54803944 1.6962116 131729
-0.24101382 -0.54803777 1.6962067 131729
-0.23794287 -0.54803622 1.6962018 131729
-0.23487197 -0.54803467 1.6961969 131729
-0.23180108 -0.54803312 1.696192 131729
-0.22873022 -0.54803145 1.696187 131729
-0.22565934 -0.5480299 1.6961821 131728
-0.22258852 -0.54802829 1.6961772 131728
-0.21951768 -0.54802668 1.6961722 131728
-0.21644686 -0.54802513 1.6961672 131727
-0.21337603 -0.54802352 1.6961622 131727
-0.2103053 -0.54802197 1.6961577 131726
-0.20723453 -0.54802036 1.6961524 131725
-0.2041638 -0.54801863 1.6961477 131725
-0.20109311 -0.5480172 1.6961428 131724
-0.1980224 -0.54801553 1.6961379 131723
-0.19495171 -0.54801399 1.6961329 131722
-0.19188108 -0.54801255 1.6961281 131721
-0.18881042 -0.54801095 1.6961235 131720
-0.18573977 -0.54800916 1.6961181 131721
-0.18266915 -0.54800761 1.6961132 131721
-0.17959855 -0.54800594 1.6961082 131722
-0.17652798 -0.54800433 1.6961033 131723
-0.1734574 -0.54800278 1.6960981 131723
-0.17038685 -0.54800105 1.6960931 131723
-0.16731633 -0.54799944 1.6960881 131723
-0.16424583 -0.54799795 1.6960833 131723
-0.16117531 -0.54799616 1.6960781 131723
-0.15810484 -0.54799467 1.6960731 131722
-0.15503439 -0.547993 1.696068 131722
-0.15196395 -0.54799145 1.6960632 131720
-0.14889352 -0.54798973 1.696058 131720
-0.14734136 -0.55369353 1.7137115 102
-0.24437772 -0.5456233 1.6982474 131723
-0.24130309 -0.54562163 1.6982424 131723
-0.23822844 -0.54562002 1.6982374 131723
-0.23515387 -0.54561847 1.6982327 131722
-0.23207927 -0.54561692 1.6982276 131722
-0.22900471 -0.54561532 1.6982226 131722
-0.22593017 -0.54561365 1.6982179 131721
-0.22285563 -0.54561216 1.6982129 131721
-0.21978112 -0.54561055 1.6982079 131720
-0.21670663 -0.54560894 1.6982031 131720
-0.21363215 -0.54560733 1.6981981 131719
-0.21055768 -0.54560566 1.6981931 131718
-0.20748325 -0.54560423 1.6981882 131717
-0.20440884 -0.54560256 1.6981832 131717
-0.20133442 -0.54560101 1.6981783 131716
-0.19826005 -0.54559958 1.6981735 131715
-0.19518566 -0.54559785 1.6981685 131714
-0.19211131 -0.54559624 1.6981635 131713
-0.18903701 -0.54559469 1.6981587 131712
-0.18596269 -0.54559314 1.6981537 131711
-0.18288837 -0.54559153 1.6981487 131711
-0.1798141 -0.54558986 1.6981437 131712
-0.17673983 -0.5455882 1.6981387 131712
-0.17366558 -0.54558665 1.6981337 131712
-0.17059132 -0.54558498 1.6981285 131713
-0.16751713 -0.54558349 1.6981235 131713
-0.16444293 -0.54558182 1.6981187 131713
-0.16136874 -0.54558015 1.6981137 131712
-0.15829459 -0.54557866 1.6981086 131712
-0.15522045 -0.54557699 1.6981035 131712
-0.15214632 -0.54557532 1.6980985 131711
-0.14907221 -0.54557383 1.6980937 131711
-0.14734428 -0.55060261 1.7137454 102
-0.24467134 -0.54320121 1.7002879 131717
-0.24159302 -0.54319966 1.7002831 131716
-0.23851469 -0.54319799 1.700278 131716
-0.23543641 -0.54319638 1.7002729 131715
-0.23235814 -0.54319501 1.7002684 131715
-0.22927989 -0.54319334 1.7002633 131714
-0.22620162 -0.54319167 1.7002584 131714
-0.22312345 -0.54319024 1.7002535 131713
-0.22004519 -0.54318869 1.7002485 131713
-0.21696702 -0.5431869 1.7002435 131712
-0.21388884 -0.54318535 1.7002386 131711
-0.21081068 -0.54318374 1.7002336 131711
-0.20773254 -0.54318219 1.7002286 131710
-0.20465444 -0.54318064 1.7002238 131709
-0.20157634 -0.54317915 1.7002188 131708
-0.19849826 -0.54317749 1.7002139 131707
-0.19542021 -0.543176 1.700209 131706
-0.19234216 -0.54317433 1.700204 131705
-0.18926412 -0.54317278 1.700199 131704
-0.18618609 -0.54317117 1.7001939 131703
-0.18310812 -0.54316968 1.7001891 131702
-0.18003017 -0.54316807 1.7001842 131702
-0.1769522 -0.54316646 1.7001792 131702
-0.17387424 -0.54316479 1.7001741 131702
-0.17079633 -0.54316324 1.7001692 131703
-0.16771841 -0.54316157 1.7001638 131703
-0.16464052 -0.54316008 1.7001592 131703
-0.16156264 -0.54315847 1.7001541 131703
-0.15848477 -0.54315674 1.7001489 131703
-0.15540695 -0.54315513 1.7001438 131702
-0.15232913 -0.54315358 1.7001388 131702
-0.14925133 -0.54315209 1.7001339 131702
-0.14734721 -0.5475114 1.7137794 102
-0.2449657 -0.54077339 1.7023335 65918
-0.24188368 -0.54077184 1.7023284 65918
-0.23880166 -0.54077023 1.7023237 65917
-0.23571967 -0.54076862 1.7023187 65917
-0.23263766 -0.54076701 1.7023137 65916
-0.22955573 -0.54076546 1.7023087 131708
-0.22647378 -0.54076397 1.7023038 131707
-0.22339183 -0.54076231 1.7022986 131706
-0.22030993 -0.54076087 1.7022939 131706
-0.21722804 -0.54075927 1.7022889 131705
-0.21414615 -0.54075766 1.702284 131704
-0.21106429 -0.54075605 1.7022789 131703
-0.20798245 -0.54075444 1.7022741 131702
-0.20490065 -0.54075289 1.7022691 131701
-0.20181882 -0.54075128 1.7022641 131700
-0.19873706 -0.54074979 1.7022591 131699
-0.19565527 -0.54074812 1.7022541 131698
-0.19257353 -0.54074663 1.7022492 131697
-0.18949182 -0.54074508 1.7022443 131696
-0.18641008 -0.54074353 1.7022394 131695
-0.18332841 -0.54074192 1.7022344 131694
-0.18024673 -0.54074037 1.7022295 131693
-0.17716508 -0.5407387 1.7022245 131693
-0.17408343 -0.54073709 1.7022195 131693
-0.17100179 -0.54073554 1.7022145 131693
-0.16792017 -0.54073381 1.7022094 131693
-0.16483857 -0.54073232 1.7022045 131693
-0.16175701 -0.54073071 1.7021993 131693
-0.15867546 -0.54072911 1.7021945 131693
-0.1555939 -0.5407275 1.702189 131693
-0.15251239 -0.54072595 1.7021841 131693
-0.14943087 -0.54072434 1.702179 131693
-0.14735013 -0.54442018 1.7138138 104
-0.24526079 -0.53833967 1.704384 65912
-0.24217504 -0.53833818 1.7043791 65911
-0.23908927 -0.53833652 1.704374 65911
-0.23600355 -0.53833485 1.7043688 65910
-0.23291789 -0.53833342 1.7043642 65909
-0.22983222 -0.53833187 1.7043593 65909
-0.22674653 -0.53833032 1.7043542 65908
-0.22366092 -0.53832877 1.7043493 65907
-0.22057529 -0.53832716 1.7043443 65906
-0.21748967 -0.53832561 1.7043393 65906
-0.21440411 -0.53832406 1.7043345 65905
-0.21131849 -0.53832233 1.7043294 131696
-0.20823295 -0.53832078 1.7043245 131695
-0.20514743 -0.53831935 1.7043195 131694
-0.20206192 -0.53831786 1.7043145 131693
-0.1989764 -0.53831619 1.7043095 131692
-0.19589095 -0.53831452 1.7043045 131691
-0.1928055 -0.53831303 1.7042996 131690
-0.18972003 -0.53831136 1.7042944 131689
-0.18663463 -0.53830993 1.7042897 131688
-0.1835492 -0.53830838 1.7042847 102
-0.18046382 -0.53830671 1.7042797 102
-0.17737846 -0.53830522 1.7042749 102
-0.17429309 -0.53830367 1.7042699 102
-0.17120777 -0.538302 1.7042649 102
-0.16812244 -0.53830057 1.7042599 102
-0.16503713 -0.53829885 1.7042545 102
-0.16195184 -0.53829724 1.7042496 102
-0.15886657 -0.53829563 1.7042445 102
-0.15578133 -0.53829408 1.7042396 102
-0.15269606 -0.53829235 1.7042344 102
-0.14961085 -0.5382908 1.7042294 102
-0.14735307 -0.54132891 1.7138476 102
-0.24555655 -0.53590012 1.7064393 65905
-0.24246708 -0.53589869 1.7064344 65905
-0.23937762 -0.53589708 1.7064296 65904
-0.23628816 -0.53589541 1.7064245 65903
-0.23319875 -0.53589392 1.7064195 65903
-0.23010939 -0.53589237 1.7064147 65902
-0.22701998 -0.5358907 1.7064095 65901
-0.22393061 -0.53588915 1.7064044 65900
-0.22084127 -0.53588766 1.7063996 65899
-0.21775196 -0.53588605 1.7063944 65898
-0.21466266 -0.5358845 1.7063895 65898
-0.21157333 -0.53588295 1.7063847 65897
-0.20848407 -0.5358814 1.7063798 65896
-0.20539482 -0.53587973 1.7063746 102
-0.20230559 -0.53587836 1.7063698 102
-0.19921635 -0.53587675 1.7063646 102
-0.19612716 -0.53587514 1.7063596 102
-0.19303799 -0.53587347 1.7063546 102
-0.18994883 -0.53587204 1.70635 102
-0.18685967 -0.53587037 1.7063447 102
-0.18377054 -0.53586882 1.7063398 102
-0.18068144 -0.53586727 1.7063348 102
-0.17759235 -0.53586572 1.7063298 102
-0.17450325 -0.53586411 1.7063248 102
-0.17141423 -0.53586268 1.70632 102
-0.16832519 -0.53586102 1.706315 102
-0.16523616 -0.53585941 1.7063099 102
-0.16214713 -0.53585786 1.7063047 102
-0.15905815 -0.53585631 1.7062998 102
-0.1559692 -0.5358547 1.7062947 102
-0.15288021 -0.53585309 1.7062896 102
-0.14979127 -0.53585148 1.7062845 102
-0.14735602 -0.53823739 1.7138817 102
-0.24585302 -0.53345478 1.7084999 65899
-0.24275984 -0.53345311 1.7084947 65899
-0.23966664 -0.53345156 1.7084897 65898
-0.23657349 -0.53345007 1.7084849 65897
-0.23348032 -0.53344846 1.7084799 65896
-0.23038721 -0.53344691 1.7084748 65895
-0.2272941 -0.53344542 1.7084699 102
-0.22420099 -0.53344381 1.7084649 102
-0.22110793 -0.53344226 1.7084599 102
-0.21801485 -0.53344059 1.7084546 102
-0.21492182 -0.53343916 1.7084498 102
-0.21182878 -0.53343749 1.7084448 102
-0.20873578 -0.533436 1.7084398 102
-0.20564283 -0.53343445 1.7084351 102
-0.20254984 -0.53343296 1.7084298 102
-0.19945689 -0.53343129 1.7084248 102
-0.19636397 -0.5334298 1.7084199 102
-0.19327106 -0.53342825 1.708415 102
-0.19017816 -0.5334267 1.70841 102
-0.18708527 -0.53342509 1.708405 102
-0.18399243 -0.53342348 1.7084 102
-0.18089958 -0.53342199 1.7083949 102
-0.17780676 -0.53342032 1.70839 102
-0.17471397 -0.53341877 1.7083851 102
-0.17162117 -0.53341722 1.70838 102
-0.16852844 -0.53341579 1.7083752 102
-0.16543567 -0.53341413 1.7083701 102
-0.16234289 -0.53341264 1.708365 102
-0.15925018 -0.53341103 1.7083597 102
-0.15615749 -0.53340948 1.7083547 102
-0.15306482 -0.53340787 1.7083497 102
-0.14997211 -0.5334062 1.7083445 102
-0.14735895 -0.53514582 1.7139159 102
-0.24615024 -0.53100324 1.7105651 102
-0.24305329 -0.53100175 1.7105601 102
-0.23995638 -0.53100026 1.7105552 102
-0.23685946 -0.53099871 1.7105501 102
-0.23376256 -0.53099716 1.7105451 102
-0.23066573 -0.53099567 1.7105402 102
-0.22756885 -0.53099406 1.7105352 102
-0.22447202 -0.53099245 1.71053 102
-0.22137523 -0.53099096 1.710525 102
-0.21827842 -0.53098935 1.71052 102
-0.2151816 -0.53098786 1.710515 102
