# .PCD v0.7 - Point Cloud Data file format
VERSION 0.7
FIELDS x y z rgba
SIZE 4 4 4 4
TYPE F F F U
COUNT 1 1 1 1
WIDTH 1128
HEIGHT 1
VIEWPOINT 0 0 0 1 0 0 0
POINTS 1128
DATA ascii
-0.066851206 -0.58400279 1.3937035 6838102
-0.064246431 -0.58325756 1.3919249 6838616
-0.061655484 -0.58258218 1.3903131 6708314
-0.059071451 -0.58191741 1.3887267 6708828
-0.056495279 -0.58127439 1.3871925 6971486
-0.053930551 -0.58069497 1.3858094 7428441
-0.051376969 -0.58018476 1.3845918 7424585
-0.048837334 -0.57978791 1.3836446 7092278
-0.046308074 -0.57947773 1.3829045 7220524
-0.043782294 -0.57917833 1.3821901 7153191
-0.041261859 -0.57891762 1.381568 6955813
-0.038745038 -0.57867718 1.3809938 6955043
-0.036231056 -0.57844895 1.3804494 6822942
-0.033721149 -0.57825667 1.3799908 6888221
-0.031215044 -0.57810432 1.3796268 6428441
-0.028711051 -0.57796764 1.3793008 6099990
-0.026208233 -0.57783115 1.378975 6099989
-0.023709826 -0.57777321 1.3788368 6034452
-0.02121231 -0.57772595 1.3787241 5837846
-0.018716004 -0.57770342 1.3786703 5576215
-0.016220996 -0.57772017 1.3787104 5380891
-0.013726853 -0.57777959 1.378852 5315611
-0.011232197 -0.5778389 1.3789935 5052183
-0.0087378006 -0.57794923 1.3792568 5117206
-0.0062426645 -0.5780794 1.3795675 5313302
-0.0037465543 -0.57823277 1.3799335 5248279
-0.0012492007 -0.57842326 1.380388 4921111
0.0012498032 -0.5786137 1.3808426 4792092
0.0037511028 -0.57890511 1.3815382 5318696
0.0062557682 -0.57927495 1.3824207 4659738
0.008763697 -0.57964933 1.3833143 4855319
0.011275765 -0.58007038 1.3843186 5116953
0.013792913 -0.58055198 1.3854682 4985624
0.016314002 -0.58102584 1.3865991 5379353
0.018838385 -0.58147514 1.3876712 5511967
0.021366676 -0.58192503 1.388745 5910836
0.02390491 -0.58252239 1.3901706 6241086
0.026449041 -0.58313602 1.3916349 6241856
0.029000225 -0.58378506 1.3931839 5979454
0.031557746 -0.5844475 1.3947649 6176832
0.034125596 -0.58518898 1.3965341 6439234
0.0367079 -0.58605886 1.3986102 6569280
0.039299607 -0.58695704 1.4007537 6769485
0.041910268 -0.58801216 1.4032718 6771797
0.044540145 -0.58920097 1.4061087 6443860
0.047195263 -0.59057713 1.409393 6377810
0.04987178 -0.59206629 1.4129467 6378324
0.052555181 -0.5934878 1.4163392 6510168
0.055255644 -0.59496081 1.4198544 6379096
0.057989389 -0.5966453 1.4238744 5786701
0.060785681 -0.59880257 1.4290224 5390400
0.063716508 -0.60205489 1.4367841 4861488
0.066919461 -0.60752273 1.4498332 7431012
-0.10091532 -0.60418171 1.4481151 5915460
-0.097308151 -0.59812129 1.4335892 4859944
-0.094268039 -0.5953095 1.4268501 5319724
-0.091373913 -0.59328747 1.4220036 5783103
-0.088528305 -0.59147209 1.4176526 5852494
-0.085700557 -0.58967149 1.4133368 6050386
-0.082945623 -0.58827627 1.4099928 6640468
-0.080217369 -0.58698785 1.4069047 6573648
-0.077506311 -0.58574498 1.4039254 6640467
-0.074816816 -0.58458614 1.4011481 6640724
-0.072168015 -0.58367515 1.3989646 6642008
-0.069537491 -0.58285123 1.3969898 6774623
-0.066918634 -0.58206642 1.3951091 6773081
-0.064315148 -0.58135909 1.3934135 6902354
-0.061721347 -0.5806852 1.3917983 6903383
-0.059134237 -0.58001953 1.390203 6839902
-0.056553297 -0.57935792 1.3886168 6775136
-0.053979449 -0.57871079 1.3870659 6906209
-0.051431879 -0.57829601 1.3860717 6839644
-0.0488941 -0.57795429 1.3852527 7099989
-0.046359599 -0.57761657 1.3844433 7029314
-0.043830983 -0.57731771 1.3837271 7089969
-0.041307397 -0.57705301 1.3830924 7087401
-0.038787775 -0.57681298 1.3825172 7021096
-0.036270268 -0.57657373 1.3819435 6758436
-0.033756904 -0.57636935 1.381454 6692384
-0.031248776 -0.5762291 1.3811176 6495004
-0.028741959 -0.57609051 1.3807856 6232603
-0.026236344 -0.57595217 1.3804539 6101533
-0.023732077 -0.57581723 1.3801308 5973287
-0.021233711 -0.57581073 1.380115 5847350
-0.01873548 -0.57580644 1.3801049 5784896
-0.016237283 -0.57580221 1.3800946 5720646
-0.013739523 -0.57581484 1.3801248 5520441
-0.011243213 -0.57590693 1.3803457 4989730
-0.0087463893 -0.57601833 1.3806126 5119260
-0.0062486008 -0.57612962 1.3808794 5380377
-0.0037501594 -0.57628882 1.381261 5183770
-0.001250484 -0.57651663 1.3818071 5120032
0.0012511685 -0.57674468 1.3823535 5254701
0.0037551112 -0.57702053 1.3830146 4991018
0.006262457 -0.57738948 1.383899 4659997
0.0087731984 -0.57777125 1.384814 4855578
0.011287598 -0.57817072 1.3857715 5116953
0.013807254 -0.57864529 1.386909 5117210
0.016330728 -0.57910919 1.388021 5379610
0.018857716 -0.57955754 1.3890951 5446429
0.021388618 -0.5800063 1.3901709 5845299
0.023926126 -0.58052081 1.3914044 5912378
0.026474623 -0.58117872 1.3929811 6045248
0.029028902 -0.58183813 1.3945615 6046019
0.031588987 -0.58249909 1.3961456 6176833
0.034160301 -0.58325368 1.3979545 6440519
0.036740609 -0.5840472 1.3998564 6572362
0.039337352 -0.58498281 1.4020991 6771284
0.041952454 -0.58606148 1.4046843 6773082
0.044583492 -0.58722687 1.4074774 6510938
0.047238067 -0.58855945 1.4106714 6379352
0.049915031 -0.59001994 1.4141719 6445145
0.052602381 -0.59145492 1.4176111 6444631
0.055305406 -0.59292424 1.4211332 6114895
0.058048338 -0.59467185 1.4253217 5784902
0.060848609 -0.59683311 1.4305019 5323324
0.063789591 -0.60014188 1.4384322 4861231
0.066999145 -0.60561872 1.4515593 7365476
-0.10113547 -0.60287285 1.4512743 5850181
-0.097457498 -0.59644043 1.4357896 4861229
-0.094399199 -0.59355158 1.4288354 5321524
-0.091485843 -0.5914371 1.4237454 5720650
-0.088636413 -0.5896253 1.4193838 5852750
-0.08580438 -0.58782452 1.4150491 5983308
-0.083033748 -0.58634645 1.4114909 6506313
-0.08030773 -0.58509964 1.4084897 6638925
-0.077593401 -0.58385909 1.405503 6639696
-0.074902564 -0.58271706 1.4027541 6573903
-0.072250582 -0.58180785 1.4005654 6638925
-0.069607772 -0.58090919 1.398402 6838616
-0.066986702 -0.58013088 1.3965282 6836304
-0.064384013 -0.57945681 1.3949056 6897985
-0.061787352 -0.57878423 1.3932867 7095108
-0.059197158 -0.57811761 1.391682 7164500
-0.056613393 -0.57745743 1.3900926 6971744
-0.054039486 -0.57684094 1.3886087 6644835
-0.051491417 -0.57645357 1.3876762 6513249
-0.048951007 -0.57611674 1.3868651 6512736
-0.046413258 -0.57577622 1.3860457 6840415
-0.043879777 -0.57545298 1.3852675 7032398
-0.041353025 -0.57518417 1.3846202 6960436
-0.038830601 -0.57494462 1.3840437 6891047
-0.036312394 -0.57473892 1.3835485 6758948
-0.033796102 -0.57453525 1.3830581 6627361
-0.03128298 -0.57435709 1.3826293 6561568
-0.028773412 -0.57421893 1.3822966 6234144
-0.026265047 -0.57408082 1.3819642 6107184
-0.023759171 -0.57397366 1.3817062 5981251
-0.021255802 -0.57390916 1.3815508 5918286
-0.018754972 -0.57390499 1.3815408 5854035
-0.016254179 -0.57390076 1.3815308 5787728
-0.013754057 -0.57392317 1.3815846 5390400
-0.011255126 -0.57401603 1.3818083 4991530
-0.0087557677 -0.57413435 1.3820931 5317411
-0.0062553929 -0.57425362 1.3823801 5840930
-0.0037542759 -0.57441843 1.382777 5645607
-0.0012518559 -0.5746448 1.383322 5716282
0.0012525637 -0.57488251 1.3838941 5257273
0.0037592817 -0.5751552 1.3845506 4465445
0.0062691607 -0.57549995 1.3853804 4660254
0.0087827202 -0.57588911 1.3863173 4855835
0.011299858 -0.57628775 1.3872769 5183001
0.01382163 -0.5767346 1.3883526 4986137
0.016347488 -0.57718861 1.3894453 5248793
0.018877083 -0.57763571 1.3905218 5249820
0.021411305 -0.57810247 1.3916454 5648434
0.023950903 -0.57860088 1.3928452 5650233
0.026500797 -0.57922935 1.3943583 5980226
0.029057631 -0.57988721 1.3959419 6047048
0.03162092 -0.58055824 1.3975571 6310218
0.034195095 -0.58131468 1.3993781 6574676
0.036775969 -0.58207309 1.4012038 6773339
0.039376907 -0.58303076 1.403509 6708060
0.041994728 -0.58410686 1.4060996 6774881
0.044626929 -0.58524895 1.4088486 6577245
0.047284201 -0.58657825 1.4120488 6379095
0.049958356 -0.58797008 1.4153994 6378582
0.052649654 -0.58941805 1.418885 6377553
0.055355825 -0.59089005 1.4224286 6047817
0.058107398 -0.5926944 1.4267719 5718339
0.060911685 -0.5948599 1.4319849 5256760
0.063863687 -0.59823227 1.4401029 4860717
0.067084208 -0.60375684 1.4534024 7365732
-0.10137808 -0.60168582 1.4547557 7365219
-0.097607411 -0.59475499 1.4379983 4862257
-0.09453126 -0.59179205 1.4308345 5258300
-0.091603503 -0.58961737 1.4255764 5590606
-0.088749394 -0.58780432 1.421193 5720906
-0.085912757 -0.58600253 1.4168365 5913661
-0.083121896 -0.58441138 1.4129894 6438721
-0.080394275 -0.58317804 1.4100075 6771024
-0.077678137 -0.58194995 1.407038 6835276
-0.074989274 -0.58084959 1.4043778 6571590
-0.072333641 -0.57993877 1.4021755 6571847
-0.069686472 -0.57903188 1.3999829 6639953
-0.067058586 -0.57822287 1.3980269 6637382
-0.064453021 -0.57755035 1.3964007 6960180
-0.061853506 -0.57687932 1.3947785 7156017
-0.059260197 -0.57621169 1.3931642 7158588
-0.056673624 -0.57555282 1.3915713 6966605
-0.05410552 -0.57502925 1.3903055 6838874
-0.051550239 -0.57459748 1.3892612 6709858
-0.049007133 -0.57426405 1.3884552 6644835
-0.046466984 -0.5739311 1.38765 6447713
-0.043929555 -0.57359552 1.3868389 6643807
-0.041398756 -0.57331127 1.3861516 7034453
-0.038875647 -0.57310355 1.3856492 6699835
-0.03635462 -0.57290006 1.3851573 6564137
-0.033835385 -0.57269669 1.3846657 6628132
-0.031317942 -0.57249361 1.3841745 6169893
-0.028804928 -0.57234317 1.3838108 6241081
-0.026294678 -0.5722242 1.3835233 6181197
-0.023786521 -0.57213056 1.3832967 5724244
-0.021279184 -0.57203686 1.3830705 5655884
-0.018774498 -0.57199913 1.382979 5258044
-0.016271848 -0.57202137 1.3830328 5324350
-0.013769634 -0.57206953 1.3831493 5257272
-0.011267358 -0.5721361 1.3833101 4859688
-0.0087652858 -0.57225406 1.3835956 5187369
-0.0062625026 -0.57240117 1.3839513 5517104
-0.0037585432 -0.57256573 1.3843491 5584953
-0.0012532296 -0.57276893 1.3848403 5521987
0.0012539718 -0.57302129 1.3854506 4598829
0.0037635099 -0.57329345 1.3861084 4267807
0.0062758792 -0.57360643 1.3868653 4397849
0.0087922662 -0.57400286 1.3878237 4856089
0.011312146 -0.57440054 1.3887854 5052184
0.013835995 -0.57481849 1.3897958 4789784
0.016364602 -0.57527494 1.3908997 4986904
0.018897532 -0.57574183 1.3920279 5250076
0.021434577 -0.57620907 1.393158 5713971
0.023977285 -0.57671428 1.3943794 5651004
0.026527019 -0.57727623 1.3957381 6048845
0.02908642 -0.57793248 1.3973249 6247767
0.031653114 -0.57861704 1.3989799 6445917
0.034229942 -0.57937157 1.4008043 6775140
0.03681463 -0.58014613 1.4026769 6775653
0.039417386 -0.58108699 1.4049516 6643038
0.042037077 -0.58214819 1.4075176 6707803
0.04467044 -0.58326697 1.4102224 6510424
0.047330417 -0.58459318 1.413429 6312017
0.0500025 -0.5859254 1.4166501 6311760
0.052697018 -0.58737767 1.4201615 6311246
0.055412032 -0.58891273 1.4238729 5915717
0.058166578 -0.5907129 1.4282252 5651775
0.060979404 -0.59292638 1.4335768 5255475
0.063937932 -0.59631807 1.4417773 4861487
0.067185991 -0.60203809 1.4556072 7365733
-0.097756967 -0.5930593 1.4402014 4863284
-0.094663702 -0.59002757 1.4328389 5259585
-0.091726132 -0.58782279 1.4274848 5524813
-0.088867828 -0.58601296 1.4230896 5653059
-0.086027063 -0.58421421 1.4187214 5911092
-0.083224051 -0.58256882 1.414726 6308419
-0.08047393 -0.58120114 1.4114044 6572874
-0.077760585 -0.58001798 1.4085313 6571076
-0.075080447 -0.5790109 1.4060855 6503999
-0.07242462 -0.57812691 1.403939 6439748
-0.069773845 -0.5772205 1.4017382 6573388
-0.067139484 -0.57638687 1.3997135 6439232
-0.064525314 -0.57566762 1.397967 6762288
-0.061919808 -0.57497036 1.3962736 7023404
-0.059323467 -0.57430232 1.3946513 7221811
-0.056738675 -0.57369184 1.3931687 7027516
-0.054171726 -0.57321334 1.3920068 6965321
-0.051609188 -0.57273698 1.3908501 7100762
-0.049063154 -0.57240433 1.3900423 6906723
-0.046520062 -0.57207209 1.3892353 6513765
-0.043979928 -0.57174015 1.3884292 6447971
-0.041446269 -0.57145721 1.3877423 6381664
-0.038920611 -0.57125545 1.3872521 6709342
-0.036396742 -0.57105374 1.3867624 6639183
-0.033874661 -0.57085228 1.3862729 6370871
-0.031354349 -0.57065076 1.3857837 6439746
-0.028836867 -0.57047009 1.3853451 6379349
-0.026324976 -0.5703764 1.3851174 5919828
-0.023813907 -0.57028246 1.3848895 5655627
-0.021303665 -0.5701887 1.3846617 5256759
-0.01879501 -0.57011795 1.38449 5253934
-0.016290298 -0.57016361 1.3846009 5652031
-0.013785246 -0.57021177 1.3847176 5520701
-0.011279775 -0.57025993 1.3848345 4861484
-0.0087749921 -0.57038051 1.3851275 5191990
-0.0062696282 -0.57054466 1.3855259 5721162
-0.0037628217 -0.57070881 1.3859246 5654856
-0.001254607 -0.57088882 1.3863617 5126200
0.0012553837 -0.57115591 1.3870106 4399649
0.0037677512 -0.57142746 1.38767 4333082
0.0062827468 -0.57172114 1.3883832 4463384
0.008801939 -0.57211965 1.3893509 4790296
0.011324644 -0.57251871 1.3903198 5051928
0.013850983 -0.572923 1.3913016 4855064
0.016382379 -0.57337964 1.3924105 4986904
0.018918073 -0.57384527 1.3935413 5053466
0.021457901 -0.57431167 1.3946741 5517361
0.02400372 -0.5748235 1.3959168 5652545
0.026555186 -0.57536012 1.3972199 6182229
0.029115269 -0.57597393 1.3987106 6314076
0.031685367 -0.5766719 1.4004054 6444634
0.034265541 -0.57743603 1.4022613 6443862
0.036854737 -0.57823634 1.4042047 6508883
0.039459787 -0.57916629 1.406463 6442833
0.042080626 -0.58020115 1.4089761 6508369
0.044714056 -0.58128124 1.411599 6509396
0.047376722 -0.58260429 1.4148118 6311246
0.050051533 -0.58393323 1.4180393 6310990
0.052744478 -0.5853337 1.4214402 6310476
0.055468358 -0.58693141 1.4253203 5783104
0.058225885 -0.58872724 1.4296813 5648948
0.061048709 -0.59100246 1.4352062 5255731
0.064012378 -0.59439957 1.4434558 4862001
0.067288056 -0.60031402 1.4578187 7365990
-0.097906977 -0.59135872 1.4424115 4798006
-0.094796523 -0.58825827 1.4348493 5260869
-0.091849074 -0.58602345 1.4293983 5457478
-0.088986576 -0.58421671 1.4249911 5650489
-0.086141661 -0.58242095 1.4206111 5908523
-0.083327129 -0.58072644 1.416478 6309189
-0.08057335 -0.5793612 1.413148 6309189
-0.077854268 -0.5781641 1.4102283 6438204
-0.07517077 -0.57715911 1.407777 6504512
-0.072514847 -0.57630283 1.4056882 6571847
-0.06986174 -0.57540727 1.4035039 6506825
-0.067226589 -0.57459766 1.4015293 6371898
-0.064605869 -0.57385278 1.3997121 6630188
-0.061994866 -0.57313699 1.3979661 6826025
-0.059390374 -0.57242274 1.3962243 6827310
-0.056808233 -0.57187027 1.3948767 6894387
-0.054238096 -0.57139289 1.393712 6895930
-0.051672243 -0.57091618 1.3925495 6963779
-0.049119286 -0.57054025 1.3916326 7230035
-0.046573266 -0.57020879 1.390824 6905439
-0.044030219 -0.56987786 1.3900169 6447713
-0.041493334 -0.56959152 1.3893182 6447714
-0.038965069 -0.56939411 1.3888366 6380893
-0.036438309 -0.56919289 1.3883458 6380636
-0.033913322 -0.56899172 1.3878552 6379350
-0.031390131 -0.56879067 1.387365 6314071
-0.028869774 -0.56861073 1.3869259 6118233
-0.026355181 -0.56852078 1.3867066 5917000
-0.023841228 -0.56842709 1.3864782 5650489
-0.021328099 -0.56833351 1.3862499 5385776
-0.018816631 -0.56826496 1.3860826 5254960
-0.016309042 -0.56831056 1.3861939 5455935
-0.01380105 -0.5683561 1.386305 5457990
-0.011292655 -0.56840175 1.3864161 5524297
-0.008784961 -0.56851846 1.3867009 5656398
-0.00627675 -0.56868196 1.3870997 5787730
-0.0037670964 -0.56884545 1.3874987 5520704
-0.0012560105 -0.56901568 1.3879137 4990761
0.0012567993 -0.56928641 1.3885739 4791580
0.0037719999 -0.56955731 1.3892348 4528664
0.0062897839 -0.56984538 1.3899375 4462871
0.0088117998 -0.57024294 1.3909074 4855577
0.01133734 -0.57064116 1.3918786 5116952
0.013866544 -0.57104534 1.3928646 4986136
0.016400194 -0.57148004 1.3939247 5052440
0.01893867 -0.57194471 1.3950582 4987673
0.021481274 -0.57241011 1.3961933 5517617
0.024030218 -0.57292843 1.3974576 5651260
0.026584527 -0.57346404 1.398764 6047302
0.02914417 -0.57401156 1.4000992 5915461
0.031717964 -0.57472748 1.4018458 6112069
0.034302846 -0.57552385 1.4037881 6243398
0.036894903 -0.57632226 1.4057356 6375498
0.039502285 -0.57724154 1.4079777 6376012
0.042126022 -0.57827395 1.4104962 6507598
0.044760786 -0.57933098 1.4130744 6310990
0.047424145 -0.58062398 1.4162283 6244939
0.050100654 -0.58193719 1.4194312 6178890
0.052791126 -0.58327627 1.4226975 6178889
0.055524804 -0.58494622 1.4267707 5716540
0.058285318 -0.58673769 1.4311404 5648177
0.061118163 -0.5890739 1.4368389 5255989
0.064088881 -0.59249401 1.4451809 4862772
0.067390449 -0.59858471 1.460037 7365990
-0.098069802 -0.58972687 1.4448103 4798520
-0.094929688 -0.5864839 1.4368651 5261897
-0.091972344 -0.58421916 1.4313166 5390400
-0.089105628 -0.58241552 1.4268978 5647406
-0.086256556 -0.58062291 1.4225062 5907752
-0.083430439 -0.57887942 1.4182343 6244167
-0.080674559 -0.57752788 1.4149233 6373184
-0.077954859 -0.5763551 1.4120502 6241339
-0.075262338 -0.57531101 1.4094919 6505283
-0.072601773 -0.57444626 1.4073733 6638667
-0.06995324 -0.5736171 1.4053421 6637126
-0.067314506 -0.5728091 1.4033622 6370614
-0.064686626 -0.57203329 1.4014616 6629675
-0.062072255 -0.57131881 1.3997111 6826025
-0.059465453 -0.57061601 1.3979894 6761260
-0.056876674 -0.57003146 1.3965572 6959409
-0.05430463 -0.56956798 1.3954216 6894131
-0.051735565 -0.56909215 1.3942559 6894902
-0.049175553 -0.56867206 1.3932269 7093309
-0.046626586 -0.56834126 1.3924162 7227980
-0.044081926 -0.56802821 1.3916494 6904154
-0.041541725 -0.56773794 1.3909383 6578272
-0.039009519 -0.56752676 1.3904209 6511195
-0.036479957 -0.56732768 1.3899329 6445402
-0.03395208 -0.56712693 1.3894413 6380891
-0.031425986 -0.56692636 1.3889499 6183256
-0.028902676 -0.5667454 1.3885067 5920084
-0.026385326 -0.5666582 1.3882929 6049872
-0.023868607 -0.56656748 1.3880706 6114379
-0.021352591 -0.56647402 1.3878417 5786441
-0.018838303 -0.56640768 1.3876791 5524553
-0.016327826 -0.5664531 1.3877904 5591374
-0.013816948 -0.56649858 1.3879018 5591889
-0.011305688 -0.56654525 1.388016 5592146
-0.0087949056 -0.56664914 1.3882707 5589835
-0.0062838569 -0.56681228 1.3886704 5585726
-0.003771361 -0.56697559 1.3890703 5450543
-0.0012574503 -0.5671522 1.389503 5250337
0.0012582149 -0.56741244 1.3901408 4921883
0.003776256 -0.5676828 1.3908032 4724761
0.0062968489 -0.56796682 1.391499 4462359
0.0088216849 -0.56836224 1.3924675 4658967
0.011350064 -0.56875944 1.3934408 4920856
0.013882138 -0.56916368 1.3944312 4986136
0.016418459 -0.56959075 1.3954777 5052186
0.018959301 -0.57003999 1.3965781 5118236
0.021504698 -0.57050443 1.397716 5517360
0.024056772 -0.57102937 1.3990021 5584951
0.02661393 -0.5715636 1.400311 6112068
0.029175891 -0.57209909 1.4016229 5981769
0.031752482 -0.57281286 1.4033716 6046790
0.034340233 -0.57360733 1.405318 6243913
0.03693527 -0.57440549 1.4072735 6309963
0.039545871 -0.57532704 1.4095312 6441293
0.042172417 -0.57635492 1.4120495 6441292
0.044810966 -0.57741994 1.4146587 6310475
0.047477201 -0.57870722 1.4178125 6112839
0.050155595 -0.5800032 1.4209875 6112839
0.052846007 -0.58130491 1.4241767 6113095
0.055581346 -0.58295679 1.4282238 5716797
0.058344871 -0.5847441 1.4326026 5583925
0.061187774 -0.58714122 1.4384754 5190966
0.06416741 -0.59060097 1.4469516 4863029
0.067493156 -0.59685016 1.4622622 7366246
-0.098233961 -0.58809459 1.4472289 4733241
-0.095063247 -0.58470446 1.4388866 5195333
-0.092100866 -0.58244121 1.4333169 5387574
-0.089225024 -0.58060968 1.4288095 5711657
-0.086371772 -0.57882023 1.4244061 5907238
-0.083538577 -0.57705921 1.4200726 6178631
-0.08078108 -0.57572597 1.4167914 6372412
-0.078057572 -0.57455546 1.4139111 6241597
-0.075353295 -0.573452 1.4111953 6507082
-0.072690725 -0.57259941 1.4090976 6638410
-0.070038527 -0.57176977 1.4070556 6766657
-0.067401521 -0.571006 1.4051763 6565938
-0.0647678 -0.57021123 1.4032205 6563626
-0.062150106 -0.56949866 1.4014666 6825770
-0.059541181 -0.56880903 1.3997698 6826796
-0.056944177 -0.5681771 1.3982147 6893104
-0.054369882 -0.56772357 1.3970985 6959410
-0.051799051 -0.56726378 1.395967 6893874
-0.049231954 -0.56679952 1.3948247 7156275
-0.046680026 -0.56646937 1.3940122 7091511
-0.04413376 -0.56617415 1.3932856 7094081
-0.041590542 -0.56588447 1.3925729 6836048
-0.039053876 -0.56565255 1.3920021 6707801
-0.03652171 -0.56545812 1.3915236 6380378
-0.033990927 -0.56525785 1.3910308 6184542
-0.031461924 -0.56505775 1.3905383 6052440
-0.028935652 -0.56487596 1.3900909 5919568
-0.026415426 -0.56478882 1.3898765 5986132
-0.023895973 -0.56470162 1.389662 5986904
-0.021377139 -0.56461042 1.3894373 5789783
-0.018860027 -0.56454617 1.3892794 5592917
-0.016346658 -0.56459141 1.3893908 5592661
-0.013832906 -0.56463778 1.3895049 5525584
-0.011318753 -0.56468451 1.3896198 5260100
-0.0088048726 -0.56477559 1.3898439 5256246
-0.0062909797 -0.56493843 1.3902445 5514281
-0.003775659 -0.56510437 1.3906531 5512481
-0.0012588939 -0.56528544 1.3910984 5314588
0.001259638 -0.56553435 1.3917111 4659224
0.0037805364 -0.56580579 1.392379 4527896
0.0063040201 -0.56609207 1.3930838 4658455
0.0088315886 -0.56647694 1.3940308 4724504
0.011362821 -0.56687367 1.3950071 4855833
0.013897769 -0.56727767 1.3960012 4986649
0.016436962 -0.56770384 1.3970501 5051928
0.018979983 -0.56813121 1.3981016 5249050
0.021528179 -0.56859452 1.3992418 5648432
0.024083385 -0.56912601 1.4005498 5715768
0.026643423 -0.56965959 1.4018629 5979455
0.029208308 -0.57019508 1.4031804 5717824
0.031787083 -0.57089412 1.4049008 6046533
0.034377709 -0.5716868 1.4068514 6243913
0.036976404 -0.5724951 1.4088407 6309962
0.039589979 -0.57341462 1.4111035 6309962
0.042220183 -0.57444906 1.4136491 6441805
0.044861697 -0.57551008 1.4162601 6310218
0.047530368 -0.57678604 1.4194002 6112838
0.050211884 -0.57807922 1.4225825 6113096
0.05290547 -0.57937801 1.4257789 6113353
0.055639736 -0.58098125 1.429724 5652031
0.058404535 -0.58274633 1.4340677 5585210
0.061257541 -0.58520395 1.4401156 4929078
0.064246118 -0.58870316 1.4487267 4797749
0.067596167 -0.5951103 1.4644939 7366246
-0.098402679 -0.5864805 1.4497144 4733498
-0.095197186 -0.58292013 1.4409139 5062977
-0.092230417 -0.58066249 1.435333 5320753
-0.089344718 -0.57879889 1.4307264 5776679
-0.086484902 -0.57699674 1.4262719 5906981
-0.083647788 -0.5752399 1.4219291 6177861
-0.080887862 -0.57391924 1.4186645 6374211
-0.078159057 -0.5727399 1.4157493 6244167
-0.075449347 -0.57162529 1.412994 6507338
-0.072778352 -0.57073605 1.4107962 6702919
-0.070123628 -0.5699144 1.4087651 6764859
-0.067483284 -0.569152 1.4068806 6761518
-0.064849988 -0.56839168 1.4050012 6826283
-0.062229447 -0.5676856 1.4032557 6826283
-0.059617095 -0.56699729 1.4015543 6761004
-0.057011843 -0.56631833 1.3998761 6827055
-0.054434434 -0.56586587 1.3987575 6958897
-0.051861152 -0.56541401 1.3976403 6959153
-0.049291521 -0.56495762 1.3965124 7024432
-0.046734568 -0.56460506 1.3956411 7156017
-0.044185709 -0.56431568 1.3949257 7025717
-0.041639477 -0.56402683 1.3942115 6899785
-0.03909833 -0.56377393 1.3935865 6642521
-0.036563318 -0.56358069 1.3931088 6316126
-0.034029856 -0.56338453 1.392624 6117721
-0.031497952 -0.5631848 1.3921304 6117720
-0.028968707 -0.56300223 1.3916789 6051669
-0.026445597 -0.56291533 1.391464 6052185
-0.023923261 -0.56282836 1.3912489 5987164
-0.021401711 -0.56274152 1.3910342 5789528
-0.018881796 -0.56268013 1.3908827 5525841
-0.016365552 -0.56272626 1.3909967 5260356
-0.013848908 -0.56277299 1.3911122 5059894
-0.011331847 -0.5628196 1.3912275 5056041
-0.008814862 -0.5628978 1.3914208 5250851
-0.0062981201 -0.56306022 1.3918222 5643555
-0.0037799999 -0.56323385 1.3922514 5511969
-0.0012603402 -0.56341445 1.3926978 5117979
0.0012610611 -0.56365192 1.393285 4658710
0.0037848447 -0.56392735 1.3939657 4658713
0.0063112061 -0.5642131 1.3946722 4724249
0.0088415165 -0.56458771 1.3955981 4789784
0.011375604 -0.56498355 1.3965764 5117210
0.013913438 -0.56538749 1.3975749 5247770
0.016455499 -0.56581271 1.3986261 5248539
0.0190014 -0.56623864 1.3996791 5052955
0.021551976 -0.56668758 1.4007885 5647920
0.024110088 -0.56721914 1.4021027 5715254
0.026673032 -0.56775242 1.4034207 5979454
0.029240796 -0.5682866 1.404741 5717566
0.031822868 -0.56899107 1.4064826 5914946
0.03441526 -0.56976199 1.4083884 6112068
0.037017629 -0.57058048 1.4104115 6112324
0.039635085 -0.57151067 1.412711 6309961
0.042268068 -0.57253879 1.4152522 6377039
0.044912539 -0.57359588 1.4178653 6310990
0.047583669 -0.57486069 1.4209919 6113611
0.050268315 -0.57615089 1.424181 6113354
0.052965097 -0.57744735 1.4273856 6113610
0.055701807 -0.57903856 1.431319 5718595
0.058464333 -0.5807445 1.4355357 5586239
0.061327472 -0.58326232 1.4417595 4929079
0.064325027 -0.58680058 1.450506 4797493
0.067699499 -0.59336513 1.4667326 7366246
-0.098573916 -0.58487231 1.4522371 4733498
-0.095338561 -0.58117378 1.4430537 4996157
-0.092360325 -0.57887858 1.4373546 5385518
-0.089464754 -0.57698333 1.4326485 5776422
-0.086597912 -0.57516569 1.4281356 5907238
-0.083757274 -0.5734157 1.4237903 6175292
-0.080994911 -0.57210749 1.420542 6374468
-0.078262284 -0.57093036 1.4176191 6310987
-0.075546019 -0.5697968 1.4148045 6441288
-0.072863966 -0.56885087 1.4124557 6634813
-0.070208043 -0.56804752 1.4104609 6763058
-0.067564875 -0.56729054 1.4085817 6826539
-0.064928301 -0.56653202 1.406698 6891818
-0.062308826 -0.56586653 1.4050456 6826539
-0.059693202 -0.56518108 1.4033436 6695723
-0.057083756 -0.56449562 1.4016418 6761261
-0.054499149 -0.56400371 1.4004202 6893360
-0.051922753 -0.56355262 1.3993003 6959153
-0.04935047 -0.56310236 1.3981824 7024433
-0.046789676 -0.5627417 1.3972867 7090997
-0.044237792 -0.56245297 1.39657 6897729
-0.041688524 -0.56216455 1.3958536 6707285
-0.039142892 -0.56189126 1.395175 6381661
-0.036604971 -0.56169832 1.394696 6446943
-0.034068797 -0.56150568 1.3942176 6507341
-0.031534057 -0.56130779 1.3937262 6372671
-0.029001839 -0.56112421 1.3932705 6241855
-0.026475832 -0.56103736 1.393055 6047303
-0.023950616 -0.5609507 1.3928397 5918030
-0.021426175 -0.56086397 1.3926241 5456194
-0.018903557 -0.56080818 1.392486 5059381
-0.016384503 -0.56085718 1.3926076 5056297
-0.013864946 -0.56090385 1.3927233 5119521
-0.011344971 -0.56095034 1.392839 5183774
-0.0088248746 -0.56101573 1.3930013 5380382
-0.0063052867 -0.5611788 1.3934062 5643040
-0.0037843473 -0.56135875 1.3938531 5642782
-0.0012617912 -0.56153905 1.3943005 5511196
0.0012624897 -0.56176525 1.3948624 4527638
0.0037891623 -0.56204474 1.3955562 4527640
0.0063184109 -0.56232989 1.3962642 4462103
0.0088514667 -0.56269419 1.3971688 4658711
0.011388415 -0.56308919 1.3981495 4986136
0.01392914 -0.56349295 1.3991522 5051673
0.016474089 -0.56391728 1.4002056 5052185
0.019022869 -0.56434226 1.4012611 5053467
0.021575959 -0.56477994 1.4023476 5516590
0.024136892 -0.56530905 1.4036613 5650231
0.026702708 -0.56584096 1.404982 5980737
0.029273352 -0.56637377 1.4063053 5520443
0.0318591 -0.56709015 1.4080839 5849921
0.034452893 -0.56783295 1.4099283 6113351
0.037058942 -0.56866151 1.4119856 6113096
0.039680302 -0.56960291 1.4143231 6179661
0.042316064 -0.57062417 1.416859 6377810
0.044963509 -0.57167757 1.4194742 6312788
0.047637083 -0.57293111 1.4225869 6114125
0.050324872 -0.57421839 1.4257832 6113611
0.053024836 -0.57551229 1.428996 6048331
0.055764019 -0.57709157 1.4329174 5784902
0.058529511 -0.57879066 1.4371362 5521216
0.061397575 -0.58131635 1.4434075 4863287
0.06440413 -0.58489358 1.4522897 4797493
0.067802586 -0.59160972 1.468966 7366246
-0.098745741 -0.58325857 1.4547685 4601912
-0.095482394 -0.57943469 1.4452307 4929850
-0.092490591 -0.57708955 1.4393817 5320238
-0.089585103 -0.57516277 1.4345758 5777706
-0.086711213 -0.57332981 1.4300041 5907238
-0.083867051 -0.57158673 1.4256563 6172979
-0.081102259 -0.57029098 1.4224246 6373184
-0.078365788 -0.569116 1.4194939 6373440
-0.075642951 -0.56796372 1.4166198 6438462
-0.072955891 -0.56700861 1.4142375 6567478
-0.070292562 -0.56617516 1.412159 6761773
-0.067646667 -0.56542468 1.4102869 6891817
-0.0650068 -0.56466758 1.4083985 6957353
-0.062384605 -0.56400841 1.4067545 6958122
-0.059769496 -0.56336004 1.4051373 6695722
-0.057156637 -0.56267601 1.4034313 6695980
-0.054563999 -0.56213695 1.4020866 6893617
-0.051984489 -0.56168699 1.4009644 6959666
-0.049409389 -0.56124097 1.3998518 6959924
-0.046844244 -0.56086582 1.3989162 7094337
-0.044289991 -0.5605858 1.3982177 7099990
-0.041737694 -0.56029803 1.3974999 6381148
-0.039188005 -0.56001043 1.3967828 6381150
-0.036646724 -0.55981171 1.396287 6772825
-0.034107644 -0.55961937 1.3958073 6569278
-0.031570245 -0.55942625 1.3953257 6237229
-0.029035047 -0.55924189 1.3948658 6106670
-0.026506141 -0.55915529 1.3946497 6044475
-0.023978028 -0.55906874 1.394434 5982280
-0.021450909 -0.5589878 1.394232 5583411
-0.018924892 -0.55891788 1.3940574 5250849
-0.016403196 -0.55897337 1.3941962 5249821
-0.013880992 -0.55902904 1.3943348 5117978
-0.011358126 -0.55907673 1.394454 4921112
-0.0088349096 -0.55912954 1.3945854 5052441
-0.0063125473 -0.55930007 1.3950107 5445918
-0.0037887078 -0.55947959 1.3954587 5445663
-0.001263245 -0.55965942 1.3959072 5314334
0.0012639202 -0.55987442 1.3964435 4396566
0.0037934892 -0.56015778 1.3971502 4527897
0.0063256305 -0.56044221 1.3978598 4593175
0.0088614412 -0.56079644 1.3987432 4724245
0.01140126 -0.56119049 1.3997262 4920342
0.013944879 -0.56159419 1.400733 5051417
0.016492715 -0.56201762 1.4017889 5051930
0.019044368 -0.56244063 1.4028443 5118492
0.021600699 -0.56288624 1.4039556 5451055
0.024163743 -0.56339455 1.4052231 5650745
0.026732447 -0.56392521 1.4065468 5915715
0.029306 -0.564457 1.4078735 5652802
0.031895414 -0.56518495 1.4096888 5850952
0.034491509 -0.56591463 1.4115089 6048845
0.037100807 -0.56674522 1.4135807 5983053
0.039725646 -0.56769079 1.4159391 6180175
0.04236415 -0.5687052 1.4184694 6311761
0.045014583 -0.56975472 1.4210868 6311248
0.047690615 -0.57099706 1.4241855 6113868
0.050381549 -0.57228148 1.4273891 6113868
0.053084731 -0.57357281 1.4306101 6048074
0.055826366 -0.57514024 1.4345195 5785158
0.058595143 -0.57683551 1.4387479 5521473
0.061467953 -0.57936698 1.4450619 4798006
0.064483434 -0.58298165 1.4540777 4797493
0.067903303 -0.58982575 1.4711483 7366246
-0.098921642 -0.58165967 1.45736 4601655
-0.095625445 -0.57768285 1.4473959 4864057
-0.092621244 -0.57529581 1.4414151 5321267
-0.089705765 -0.57333726 1.4365081 5715768
-0.086824805 -0.5714891 1.4318775 5911092
-0.083977126 -0.56975305 1.4275274 6171437
-0.0812096 -0.56846768 1.4243071 6435637
-0.078469574 -0.56729698 1.4213738 6436407
-0.075741366 -0.56613511 1.4184628 6370356
-0.073048308 -0.56516385 1.4160295 6565937
-0.070376299 -0.56429046 1.4138411 6761517
-0.067728102 -0.56354952 1.4119846 6892331
-0.065085493 -0.56279862 1.4101031 6892330
-0.062460579 -0.56214583 1.4084678 6957867
-0.059844524 -0.56152064 1.4069011 6826795
-0.057229698 -0.56085175 1.4052253 6695981
-0.05462902 -0.56026584 1.4037573 6893874
-0.052046381 -0.5598169 1.4026325 6894901
-0.04946962 -0.5593881 1.401558 6962235
-0.046898868 -0.55898476 1.4005475 6967889
-0.044342063 -0.55871099 1.3998616 6709343
-0.041786976 -0.55842704 1.39915 6447200
-0.039234251 -0.55814004 1.3984311 6642781
-0.036688574 -0.55792069 1.3978813 6703434
-0.034146577 -0.55772889 1.3974006 6565165
-0.031606328 -0.55753714 1.3969202 6432293
-0.029068325 -0.55735523 1.3964646 6176060
-0.026536603 -0.55727047 1.3962523 6045247
-0.024005834 -0.55719006 1.3960508 5848127
-0.021475799 -0.55710977 1.3958497 5712171
-0.018946493 -0.55702949 1.3956485 5511707
-0.016421726 -0.55707848 1.3957713 5249049
-0.013896676 -0.55713403 1.3959104 5052183
-0.011371124 -0.55718958 1.3960496 5117720
-0.0088450704 -0.55724514 1.3961887 5314586
-0.0063198255 -0.55741668 1.3966186 5642525
-0.0037930766 -0.55759603 1.3970678 5511453
-0.0012647025 -0.55777538 1.3975174 5117723
0.0012653619 -0.55798286 1.3980372 4724504
0.0037978198 -0.55826569 1.3987455 4658713
0.006332837 -0.55854774 1.3994523 4724504
0.0088714398 -0.55889446 1.4003212 4724502
0.011414131 -0.55928773 1.4013064 4920598
0.013960648 -0.55969113 1.4023173 4986135
0.01651136 -0.56011266 1.4033735 5052185
0.0190659 -0.56053448 1.4044303 5184028
0.021625502 -0.56098843 1.4055674 5385518
0.024190662 -0.56147569 1.4067886 5584953
0.026762253 -0.56200516 1.4081151 5980740
0.029339397 -0.56254911 1.4094779 5587524
0.03193181 -0.56327528 1.4112973 5784390
0.034530923 -0.56400347 1.4131217 6047562
0.037143171 -0.56483078 1.4151947 6113098
0.03977108 -0.56577426 1.4175587 6310219
0.042412363 -0.56678206 1.4200836 6375755
0.045065776 -0.56782734 1.4227028 6309192
0.047744259 -0.5690586 1.4257877 6112326
0.050438359 -0.57034004 1.4289985 6113097
0.05314476 -0.57162899 1.4322277 6048074
0.055888847 -0.57318455 1.4361253 5784645
0.058660924 -0.57487583 1.440363 5520446
0.061539032 -0.57741827 1.4467331 4797493
0.064562917 -0.58106506 1.4558702 4797236
0.06800434 -0.58803654 1.4733372 7365990
-0.099136673 -0.58028036 1.4605278 4601655
-0.095769651 -0.5759303 1.4495789 4863799
-0.092752241 -0.57349682 1.4434538 5323323
-0.089826763 -0.57150704 1.4384458 5718337
-0.086938709 -0.56964362 1.4337559 5849923
-0.084088385 -0.56792045 1.4294187 6172722
-0.081316598 -0.56663525 1.4261839 6433325
-0.078573614 -0.56547308 1.4232585 6434351
-0.07584177 -0.56431472 1.4203433 6435120
-0.07314042 -0.56331009 1.4178147 6565679
-0.070459113 -0.56239235 1.4155049 6762031
-0.067808241 -0.56165761 1.4136555 6893102
-0.065164275 -0.56092447 1.4118102 6892589
-0.062536746 -0.56027883 1.4101851 6892588
-0.05991742 -0.55965477 1.4086146 6892589
-0.057302937 -0.55902284 1.4070239 6696495
-0.054694183 -0.55839026 1.4054317 6894388
-0.052108422 -0.55794233 1.4043043 6830650
-0.049529992 -0.55753082 1.4032685 6966090
-0.046956062 -0.55712819 1.4022553 6773594
-0.044393465 -0.55682194 1.4014843 6578529
-0.041836374 -0.55655158 1.400804 6578272
-0.039280608 -0.55626523 1.4000834 6837331
-0.036730513 -0.55602515 1.3994792 6632757
-0.034185596 -0.55583388 1.3989975 6629928
-0.031642433 -0.55564272 1.3985162 6501170
-0.02910166 -0.55546379 1.398066 6440775
-0.02656744 -0.55538785 1.3978748 5978940
-0.024033727 -0.55530769 1.3976729 5712429
-0.021500744 -0.5552274 1.3974712 5578787
-0.018968496 -0.55514735 1.3972695 5445658
-0.016440298 -0.55517942 1.3973501 5314328
-0.013912398 -0.55523467 1.3974894 5248535
-0.011383989 -0.55529016 1.397629 5248791
-0.0088552702 -0.55535764 1.397799 5314329
-0.0063269753 -0.5555166 1.3981987 5642525
-0.0037973709 -0.55569571 1.3986496 5511454
-0.0012661377 -0.555875 1.3991011 5249051
0.0012667868 -0.55607748 1.3996106 4789783
0.0038020909 -0.55635864 1.4003181 4724504
0.0063399617 -0.55663997 1.4010265 4658712
0.0088814851 -0.55698991 1.4019071 4855063
0.01142705 -0.55738133 1.4028924 5183001
0.013976436 -0.55778295 1.4039032 5052183
0.016530031 -0.5582031 1.4049606 5052183
0.01908748 -0.55862385 1.4060198 5249305
0.021650353 -0.55908591 1.4071828 5450797
0.024217876 -0.55955797 1.408371 5518390
0.026792126 -0.56008083 1.4096869 5848641
0.029372877 -0.56063688 1.4110863 5849669
0.031968296 -0.56136143 1.41291 6046792
0.034570366 -0.56208682 1.4147358 6243656
0.037185572 -0.56291097 1.4168103 6176836
0.039816625 -0.56385326 1.4191818 6307137
0.042460673 -0.56485426 1.4217012 6372158
0.045117088 -0.56589568 1.4243226 6305594
0.04779803 -0.56711578 1.4273934 6110270
0.050495297 -0.56839442 1.4306116 6112583
0.053204916 -0.56968063 1.4338491 6047046
0.055951476 -0.57122433 1.4377344 5783103
0.058726847 -0.57291198 1.4419818 5518905
0.061610281 -0.5754652 1.4484081 5059124
0.064642601 -0.57914394 1.4576674 4797236
0.068105653 -0.5862419 1.4755323 7365990
-0.099352621 -0.57889503 1.4637094 5983822
-0.095915787 -0.57418132 1.4517908 4798520
-0.092883624 -0.57169271 1.4454983 5324607
-0.089948095 -0.56967169 1.4403887 5720907
-0.087052919 -0.56779337 1.4356393 5784901
-0.084200114 -0.56608433 1.431318 6110269
-0.081423901 -0.56479812 1.428066 6434095
-0.078678027 -0.56364483 1.4251498 6368816
-0.075942449 -0.56248963 1.4222287 6370098
-0.073232733 -0.56145149 1.4196042 6566192
-0.070543744 -0.56050271 1.4172051 6697265
-0.067888029 -0.55975664 1.4153188 6894387
-0.065241158 -0.55902791 1.413476 6893617
-0.062611021 -0.55838871 1.41186 7023919
-0.059990481 -0.55778468 1.4103326 6958382
-0.057373725 -0.55716348 1.4087619 6762801
-0.054759577 -0.55651093 1.4071121 6764343
-0.05217135 -0.5560711 1.4060001 6898499
-0.049590506 -0.55566889 1.404983 6969689
-0.047013395 -0.55526727 1.4039676 6578271
-0.044444997 -0.55492854 1.403111 6578785
-0.041885033 -0.55466044 1.4024333 6905436
-0.039327078 -0.55438608 1.4017396 6833220
-0.036772557 -0.55412567 1.401081 6761517
-0.034224711 -0.55393469 1.4005983 6632501
-0.031678863 -0.55374795 1.4001262 6507082
-0.029135909 -0.55358398 1.3997115 6245452
-0.026598223 -0.55349821 1.3994944 5976884
-0.024061687 -0.55342078 1.3992989 5972515
-0.021525752 -0.55334079 1.3990965 5774366
-0.018990554 -0.55326068 1.3988942 5511194
-0.016458917 -0.55327582 1.3989325 5314329
-0.013928153 -0.5533312 1.3990723 5117720
-0.011396892 -0.55338693 1.3992133 5052183
-0.0088655241 -0.55346769 1.3994176 5249048
-0.0063341325 -0.5536111 1.3997803 5577245
-0.0038016699 -0.55379003 1.4002326 5576988
-0.0012675701 -0.55396903 1.4006851 5248792
0.0012682118 -0.55416679 1.4011852 4790039
0.0038063694 -0.55444723 1.4018943 4855832
0.0063471552 -0.55473304 1.4026167 4790039
0.0088915545 -0.55508095 1.4034965 4920598
0.011440013 -0.55547148 1.404484 5051926
0.013992302 -0.55587208 1.405497 4855574
0.016548747 -0.55628914 1.4065514 4986646
0.019109106 -0.55670911 1.4076133 5249304
0.021675268 -0.55717933 1.4088022 5450539
0.024245767 -0.55765039 1.4099929 5583926
0.02682207 -0.55815232 1.4112623 5847100
0.029406423 -0.55872011 1.412698 5846330
0.032004856 -0.55944294 1.4145257 5976630
0.034609802 -0.56016451 1.4163499 6106931
0.037227958 -0.56098521 1.4184251 6106417
0.039862275 -0.56192791 1.4208088 6302255
0.042508982 -0.56292057 1.4233187 6368304
0.045168504 -0.56395966 1.4259461 6305080
0.047851928 -0.56516868 1.429003 6111297
0.050552346 -0.56644428 1.4322282 6112583
0.053265333 -0.56772929 1.4354773 6046275
0.05601424 -0.56925988 1.4393473 5716282
0.058792934 -0.57094347 1.4436042 5517619
0.061681695 -0.57350743 1.4500868 5124146
0.064722493 -0.57721788 1.4594687 4862772
0.068207294 -0.58444184 1.4777341 7365990
-0.099569522 -0.57750356 1.4669046 5983565
-0.096062377 -0.57242703 1.4540095 4864571
-0.093015388 -0.56988347 1.4475489 5260099
-0.090069763 -0.56783158 1.4423369 5522500
-0.087167397 -0.56593806 1.4375274 5653316
-0.084312133 -0.5642432 1.4332224 6111811
-0.081531495 -0.56295604 1.4299527 6369330
-0.078782395 -0.56180948 1.4270403 6435123
-0.07604339 -0.56065941 1.4241191 6372154
-0.073325261 -0.55958819 1.4213979 6439746
-0.070632756 -0.55864155 1.4189934 6571076
-0.067968011 -0.55785125 1.4169862 6833477
-0.065318495 -0.55712903 1.4151516 6831678
-0.062682316 -0.5564661 1.4134678 6894388
-0.060059503 -0.55587047 1.4119549 7089967
-0.057442285 -0.55527616 1.4104452 6894386
-0.054829501 -0.55467135 1.408909 6897726
-0.052235216 -0.55420381 1.4077213 7033682
-0.049651176 -0.55380243 1.4067018 6708829
-0.047070865 -0.55340171 1.4056839 6578272
-0.044496641 -0.55303061 1.4047415 6709599
-0.041933682 -0.55276316 1.404062 6967376
-0.039373189 -0.5524959 1.4033833 6764089
-0.036814682 -0.55222166 1.4026864 6698297
-0.034263916 -0.55203104 1.4022024 6703178
-0.031716283 -0.5518648 1.4017801 6508366
-0.029170318 -0.55170107 1.4013643 6109241
-0.02662845 -0.55159104 1.4010848 6039081
-0.02408966 -0.55152839 1.4009256 6103075
-0.021550819 -0.55144966 1.4007256 5839390
-0.019012664 -0.55136985 1.4005228 5510938
-0.016477576 -0.55136812 1.4005184 5314330
-0.013943947 -0.55142325 1.4006586 5183001
-0.011410105 -0.55149281 1.4008352 5117464
-0.008875804 -0.55157357 1.4010401 5248537
-0.0063413056 -0.55170166 1.4013655 5511452
-0.0038059764 -0.55187994 1.4018188 5380380
-0.0012690164 -0.55206287 1.4022832 4986648
0.001269659 -0.55226016 1.4027843 4724503
0.0038106591 -0.5525316 1.4034739 4789784
0.0063544065 -0.55282503 1.4042192 4723991
0.0089016445 -0.55316764 1.4050894 4855575
0.011453018 -0.55355787 1.4060805 4855318
0.014008258 -0.55395901 1.4070997 4855319
0.016567504 -0.55437088 1.4081457 4986390
0.0191311 -0.55479908 1.4092335 5117975
0.021700239 -0.55526823 1.4104251 5450539
0.024273722 -0.55573821 1.4116187 5582384
0.026852077 -0.55621946 1.4128413 5646122
0.029440051 -0.55679911 1.4143136 5776680
0.03204143 -0.55751914 1.4161423 5907237
0.034649342 -0.55823785 1.417968 6103332
0.037270434 -0.55905497 1.4200437 6039338
0.039907992 -0.5599978 1.4224385 6304310
0.042557411 -0.56098264 1.4249401 6438208
0.045220047 -0.56201929 1.4275733 6308420
0.047905944 -0.5632171 1.4306159 6112839
0.050609544 -0.5644899 1.4338487 6047560
0.053325899 -0.56577355 1.4371092 6112582
0.056077152 -0.56729096 1.4409637 5714998
0.058859155 -0.56897062 1.4452302 5517104
0.061753273 -0.57154512 1.4517698 5123888
0.06479878 -0.57525337 1.4611889 4862772
0.068309225 -0.58263654 1.4799428 7365989
-0.099796958 -0.5761615 1.4702554 5983052
-0.096209399 -0.57066709 1.4562349 4865341
-0.093149528 -0.56808144 1.4496365 5260099
-0.090191737 -0.56598616 1.4442902 5455422
-0.087282203 -0.56407797 1.4394205 5651261
-0.084424458 -0.56239724 1.4351318 6112839
-0.081639357 -0.56110913 1.4318447 6305078
-0.078884095 -0.55994833 1.4288826 6437948
-0.076144613 -0.55882448 1.4260147 6309188
-0.073418036 -0.55772001 1.4231962 6442573
-0.070721991 -0.55677557 1.4207861 6443859
-0.068048172 -0.55594146 1.4186575 6642522
-0.065396018 -0.55522567 1.416831 6772823
-0.062753767 -0.55453908 1.4150791 6965577
-0.060127884 -0.55394489 1.4135628 6960179
-0.057507634 -0.55335188 1.4120497 7027000
-0.054892972 -0.55276024 1.4105399 7031370
-0.052299254 -0.55233192 1.409447 7036508
-0.049711987 -0.55193138 1.4084249 6512991
-0.047128476 -0.55153143 1.4074043 6643807
-0.044548705 -0.55113214 1.4063852 6904666
-0.041982435 -0.5508616 1.4056946 6766401
-0.039418951 -0.55059487 1.4050144 6764858
-0.036857948 -0.55032849 1.4043344 6704462
-0.034304291 -0.55014068 1.4038551 6639953
-0.03175379 -0.54997712 1.4034379 6241340
-0.029204803 -0.54981381 1.4030211 6104872
-0.02665874 -0.54967952 1.4026786 6103331
-0.02411706 -0.54961699 1.4025191 5972260
-0.021575943 -0.54955411 1.4023585 5578272
-0.019034827 -0.54947454 1.4021554 5249561
-0.01649628 -0.549456 1.402108 5183769
-0.013959846 -0.54951388 1.4022557 5117977
-0.011423346 -0.54959422 1.4024608 5117977
-0.0088861035 -0.54967469 1.4026661 5249306
-0.0063484954 -0.54978758 1.4029543 5643037
-0.003810293 -0.5499655 1.4034085 5577500
-0.0012704721 -0.55015433 1.4038901 5183768
0.0012711138 -0.5503512 1.4043925 4659479
0.0038149562 -0.55061167 1.4050572 4527639
0.0063616764 -0.55091268 1.4058254 4658969
0.0089117605 -0.55125004 1.4066861 4724247
0.011466062 -0.55164045 1.4076823 4724246
0.01402425 -0.55204177 1.4087062 4920856
0.016586373 -0.55245048 1.4097494 4920856
0.01915315 -0.55288464 1.4108574 4921881
0.021725262 -0.55335259 1.4120516 5515819
0.024301739 -0.55382156 1.4132481 5647150
0.026882583 -0.55429119 1.4144465 5644836
0.029473754 -0.55487359 1.4159327 5776165
0.03207802 -0.5555895 1.4177597 5974572
0.034688964 -0.5563066 1.4195893 6173236
0.037313007 -0.55712026 1.4216659 6043449
0.039953664 -0.558061 1.4240663 6374727
0.042605944 -0.55904019 1.4265651 6441805
0.045271717 -0.56007439 1.4292043 6310732
0.047960073 -0.56126112 1.4322327 6114123
0.050666898 -0.56253129 1.4354737 6048074
0.053386599 -0.56381327 1.4387451 6113096
0.056140199 -0.56531769 1.442584 5781561
0.058925524 -0.56699342 1.4468601 5452082
0.061825015 -0.56957829 1.4534564 5058095
0.064870611 -0.57324338 1.4628088 4862772
0.068411469 -0.58082581 1.4821577 7365989
-0.10003949 -0.57489401 1.4738286 5917001
-0.096356891 -0.56890213 1.4584672 4799291
-0.09328489 -0.56627923 1.4517431 5260099
-0.090314038 -0.56413603 1.4462488 5388601
-0.087397292 -0.56221294 1.4413188 5650746
-0.084537081 -0.5605464 1.4370463 6047816
-0.081747517 -0.55925733 1.4337413 6241340
-0.07898467 -0.55807257 1.4307044 6374981
-0.07624571 -0.5569818 1.4279079 6312271
-0.073511034 -0.55584717 1.424999 6443858
-0.070811421 -0.55490464 1.4225826 6507853
-0.068129137 -0.55403185 1.4203453 6573646
-0.065473713 -0.55331767 1.4185143 6706774
-0.062825382 -0.55260772 1.416694 6903381
-0.060196429 -0.55201477 1.4151742 6896699
-0.05757311 -0.55142325 1.4136577 6963264
-0.054957308 -0.55085194 1.4121932 7034197
-0.05236011 -0.55042052 1.411087 6972773
-0.049772955 -0.55005586 1.4101522 6775649
-0.047186233 -0.54965681 1.4091291 6709086
-0.044603262 -0.54925835 1.4081075 6770768
-0.042031314 -0.54895544 1.4073312 6833221
-0.039464816 -0.54868937 1.4066491 6901839
-0.036901165 -0.54842889 1.4059813 6640467
-0.034344919 -0.54824805 1.4055176 6373954
-0.031791385 -0.54808497 1.4050994 6172977
-0.02923937 -0.54792196 1.4046817 6304563
-0.026689103 -0.54776376 1.4042761 6241340
-0.024144527 -0.54770142 1.4041164 5979966
-0.02160053 -0.54763913 1.4039567 5716281
-0.019057039 -0.54757482 1.4037917 5386542
-0.016515024 -0.54753953 1.4037012 5319978
-0.013976062 -0.54761094 1.4038844 5321007
-0.011436618 -0.5476914 1.4040903 5254700
-0.008896431 -0.54777163 1.4042962 5253416
-0.0063557029 -0.54786944 1.404547 5579298
-0.00381462 -0.54804695 1.405002 5512477
-0.0012719296 -0.54824156 1.4055009 5184025
0.0012725722 -0.54843789 1.4060042 4725529
0.0038192645 -0.54868746 1.4066441 4462871
0.0063689612 -0.54899609 1.4074353 4527894
0.0089218989 -0.54932803 1.4082865 4789783
0.011479141 -0.54971868 1.4092877 4724246
0.014040282 -0.55011988 1.4103162 4855063
0.016605312 -0.55052662 1.411359 5183002
0.019174965 -0.55095792 1.4124645 5118490
0.021750154 -0.55142796 1.4136697 5450539
0.024329754 -0.55189884 1.4148772 5517361
0.026913678 -0.55236906 1.4160824 5845555
0.02950746 -0.55294222 1.4175518 5648947
0.032114707 -0.55365568 1.4193808 5912378
0.034728684 -0.554371 1.4212147 6044734
0.037355684 -0.55518121 1.4232919 6112069
0.03999944 -0.55611968 1.4256978 6310732
0.042654581 -0.55709332 1.4281938 6509138
0.045323491 -0.5581252 1.4308391 6312531
0.048014335 -0.5593009 1.4338531 6114638
0.050724387 -0.56056815 1.4371021 6048074
0.053447433 -0.56184864 1.4403847 6113353
0.056203395 -0.56333983 1.4442077 5782589
0.058992051 -0.56501162 1.4484935 5386289
0.061896928 -0.56760687 1.455147 5057838
0.064942606 -0.57122886 1.4644322 4862515
-0.10037676 -0.57415545 1.4787972 7365476
-0.096512184 -0.56717473 1.4608178 4732727
-0.093420669 -0.56447178 1.453856 5259328
-0.090435401 -0.56227267 1.4481921 5321780
-0.087512717 -0.56034303 1.443222 5716538
-0.084650002 -0.55869061 1.438966 5982537
-0.081854053 -0.55738759 1.4356098 6177346
-0.079085484 -0.5561921 1.4325306 6378065
-0.076345861 -0.55512547 1.4297836 6248277
-0.0736081 -0.55399835 1.4268806 6379092
-0.070901081 -0.553029 1.4243839 6572875
-0.068210162 -0.55211687 1.4220347 6635841
-0.065551601 -0.55140519 1.4202017 6637898
-0.062899761 -0.55069453 1.4183713 6904152
-0.060265139 -0.5500803 1.4167893 6832964
-0.057638749 -0.54949021 1.4152694 6900298
-0.055022091 -0.54894209 1.4138577 6970973
-0.052420251 -0.54849577 1.412708 6711142
-0.049831361 -0.54814583 1.4118068 6907492
-0.047244132 -0.54777747 1.4108579 6905693
-0.044657953 -0.54737985 1.409834 6770254
-0.042080302 -0.54704493 1.4089714 6903380
-0.039510798 -0.54677957 1.408288 6904153
-0.036945313 -0.5465371 1.4076633 6570820
-0.034384742 -0.54633677 1.4071473 6501689
-0.031829074 -0.54618835 1.406765 6504769
-0.029274018 -0.54602569 1.4063462 6443344
-0.026720494 -0.54586333 1.4059279 6117977
-0.024172056 -0.54578149 1.4057173 6118233
-0.021625152 -0.54571939 1.4055572 5985876
-0.019078832 -0.54565716 1.4053969 5722190
-0.016533967 -0.54562384 1.4053112 5589832
-0.013992318 -0.54570383 1.4055173 5589320
-0.011449921 -0.545784 1.4057236 5127227
-0.0089067798 -0.54586399 1.4059298 4992814
-0.0063629253 -0.54594672 1.406143 5514277
-0.0038189869 -0.54612851 1.406611 5512222
-0.0012733899 -0.54632425 1.4071152 5117978
0.0012740344 -0.54652017 1.4076197 4790811
0.0038236137 -0.54676306 1.4082453 4462615
0.0063762609 -0.54707515 1.409049 4593432
0.0089320634 -0.54740191 1.4098909 4724247
0.011492202 -0.54779047 1.4108915 4789527
0.014056252 -0.54819012 1.4119208 4985880
0.016624128 -0.54859293 1.4129585 5182745
0.019196412 -0.54901451 1.4140441 5117979
0.021774502 -0.5494833 1.415252 5384747
0.024357008 -0.54995328 1.4164619 5584181
0.026943905 -0.5504232 1.4176726 5847611
