# .PCD v0.7 - Point Cloud Data file format
VERSION 0.7
FIELDS x y z rgba
SIZE 4 4 4 4
TYPE F F F U
COUNT 1 1 1 1
WIDTH 1134
HEIGHT 1
VIEWPOINT 0 0 0 1 0 0 0
POINTS 1134
DATA ascii
-0.10349975 -0.54561007 1.4118581 5578016
-0.10097957 -0.5458014 1.4123528 5315357
-0.09845762 -0.54599273 1.412848 4789782
-0.095941179 -0.54622549 1.4134504 4658968
-0.093434162 -0.54652631 1.4142287 4658968
-0.090930417 -0.54686373 1.4151018 4527895
-0.088427559 -0.54722607 1.4160395 4986136
-0.085924231 -0.54760718 1.4170256 5117208
-0.083418243 -0.5479942 1.418027 4986646
-0.080908701 -0.54838175 1.41903 5117722
-0.078404754 -0.54883379 1.4201996 5317671
-0.075896502 -0.54928541 1.4213684 5518389
-0.073383868 -0.54973584 1.422534 5782077
-0.07087592 -0.55025536 1.4238784 5849669
-0.068382375 -0.55093026 1.4256247 5915976
-0.065884441 -0.55162138 1.427413 6112584
-0.063379012 -0.55230337 1.429178 6047819
-0.060888581 -0.55317992 1.4314461 6177607
-0.058389947 -0.55405647 1.4337142 6441291
-0.055889696 -0.5549984 1.4361519 6441291
-0.053382471 -0.55595976 1.4386393 6309962
-0.050882347 -0.55709738 1.4415832 6047817
-0.048374176 -0.55826509 1.4446048 6047560
-0.04585664 -0.559452 1.4476761 6046276
-0.043341361 -0.560812 1.4511952 5849153
-0.04082343 -0.56231099 1.4550743 5255987
-0.038338654 -0.56450486 1.4607513 5123888
-0.035861425 -0.56714302 1.4675779 4993330
-0.033419512 -0.57080674 1.4770584 4731444
-0.19471411 -0.56294912 1.4635806 4992559
-0.19117631 -0.5603444 1.4568089 5321010
-0.18776517 -0.55804354 1.4508269 5717823
-0.18451737 -0.55616957 1.4459547 5983051
-0.18142542 -0.5547182 1.4421815 6248792
-0.17841655 -0.55348217 1.4389681 6444630
-0.17546378 -0.55238616 1.4361186 6507339
-0.17249405 -0.55120307 1.4330425 6508367
-0.16958033 -0.55016524 1.4303448 6510423
-0.16669933 -0.5492034 1.4278438 6576472
-0.16389462 -0.54846638 1.425928 6773851
-0.16109745 -0.54773158 1.4240172 6773595
-0.15835106 -0.54714817 1.4225006 6840671
-0.15561937 -0.54659712 1.421068 6776677
-0.15291058 -0.54610932 1.4197998 6841957
-0.15022722 -0.54569739 1.4187289 6971744
-0.14756343 -0.54534328 1.4178083 7100762
-0.14490318 -0.54499006 1.4168899 7095622
-0.14224641 -0.54463732 1.4159729 6897728
-0.1396167 -0.54437721 1.4152966 6835276
-0.13699877 -0.54415423 1.414717 6511963
-0.13438299 -0.54393137 1.4141375 6053726
-0.1317762 -0.54373705 1.413632 6380894
-0.12918396 -0.54359615 1.4132657 6376012
-0.12659305 -0.54345524 1.4128996 5779506
-0.1240007 -0.54330218 1.4125018 5847866
-0.12143026 -0.54324085 1.4123423 5920082
-0.1188705 -0.54322571 1.4123029 5658197
-0.11631113 -0.5432117 1.4122665 5591120
-0.11375684 -0.54322112 1.412291 5126456
-0.11121814 -0.54330719 1.412515 4792867
-0.10867864 -0.54339355 1.4127392 5053214
-0.10614187 -0.54349786 1.4130105 5512480
-0.10361218 -0.54364449 1.4133918 5643295
-0.10108931 -0.54383528 1.4138877 5249564
-0.098564662 -0.5440262 1.4143839 4658455
-0.096048132 -0.5442732 1.4150262 4593432
-0.093535081 -0.544554 1.4157562 4593431
-0.091030464 -0.54490107 1.4166586 4658454
-0.088523924 -0.5452565 1.4175826 5051416
-0.086017109 -0.54563135 1.4185572 5116952
-0.083508238 -0.54601592 1.419557 4986647
-0.080995992 -0.5464021 1.4205608 5117978
-0.078487813 -0.54684174 1.4217041 5251877
-0.075976707 -0.54729027 1.4228702 5583669
-0.073461473 -0.54773962 1.4240383 5780279
-0.070952624 -0.54827076 1.4254192 5913662
-0.068452999 -0.5489161 1.4270968 5979970
-0.065955244 -0.54962766 1.428947 6177349
-0.063446961 -0.55030584 1.4307102 6113098
-0.060953192 -0.55117327 1.432965 6111812
-0.058452003 -0.55204743 1.4352379 6374983
-0.055949017 -0.55298525 1.4376762 6374983
-0.053438902 -0.55394077 1.44016 6309703
-0.050934948 -0.55506122 1.4430734 6113353
-0.048424289 -0.55622572 1.4461012 6113353
-0.045904238 -0.55740964 1.4491789 6046790
-0.043385044 -0.55874795 1.4526581 5849924
-0.040864691 -0.56024289 1.4565449 5387831
-0.038376465 -0.56241494 1.4621918 5124403
-0.035895772 -0.56502742 1.4689839 4928051
-0.033444066 -0.56855065 1.4781439 4730930
-0.19506572 -0.56131166 1.4662236 4994357
-0.19148746 -0.55861527 1.4591801 5321267
-0.18805143 -0.55626416 1.4530387 5651773
-0.18478286 -0.55434865 1.4480352 5917772
-0.18167132 -0.55285603 1.4441361 6183513
-0.17865296 -0.55160743 1.4408746 6509395
-0.17569949 -0.55052513 1.4380476 6570820
-0.17273137 -0.54936385 1.435014 6439234
-0.16980483 -0.54830128 1.4322386 6508367
-0.16690904 -0.54730654 1.4296401 6510166
-0.16409267 -0.54654503 1.4276509 6708573
-0.16129442 -0.54582047 1.4257582 6775136
-0.15853947 -0.54522121 1.4241931 6776163
-0.15580435 -0.54467148 1.4227571 6710628
-0.15309049 -0.54417896 1.4214704 7103073
-0.15040386 -0.54376793 1.4203969 7230805
-0.14773223 -0.54339784 1.4194301 7160644
-0.14506885 -0.54304564 1.41851 7158589
-0.14240915 -0.54269451 1.4175928 6965319
-0.13977961 -0.54244775 1.4169483 6708315
-0.13716118 -0.54223549 1.4163938 6316384
-0.13454221 -0.54201317 1.415813 6250334
-0.13192609 -0.54179382 1.4152403 6312274
-0.12933087 -0.54165334 1.4148731 6305338
-0.126737 -0.54151285 1.4145063 5910322
-0.12414445 -0.54137254 1.4141396 6113608
-0.12157111 -0.5413115 1.4139805 5724760
-0.11900865 -0.54129761 1.413944 5592402
-0.1164463 -0.54128361 1.4139074 5523528
-0.1138841 -0.54126966 1.4138708 4794409
-0.11134031 -0.54134458 1.4140668 5119264
-0.10879803 -0.54143053 1.4142911 5184029
-0.10626166 -0.54155076 1.4146051 5511452
-0.10372643 -0.5416829 1.4149504 5838877
-0.1011993 -0.54186487 1.4154259 5576477
-0.098673902 -0.5420661 1.4159513 4789272
-0.096155375 -0.54231662 1.4166059 4593433
-0.093636215 -0.54257745 1.4172869 4658968
-0.091129608 -0.54292756 1.4182016 4855576
-0.088619433 -0.54327601 1.419112 4920599
-0.086110443 -0.54365307 1.4200965 4920598
-0.083598919 -0.54403651 1.4210984 4986648
-0.081083469 -0.54441816 1.4220952 5249051
-0.078570753 -0.54484367 1.4232066 5317155
-0.076057054 -0.54529089 1.4243752 5649461
-0.073539235 -0.54573905 1.4255458 5716025
-0.071029484 -0.54628181 1.4269636 5782333
-0.068523757 -0.54689783 1.4285723 5781050
-0.066024005 -0.54761147 1.4304366 6045763
-0.063515306 -0.54830617 1.4322512 6114124
-0.061017938 -0.54916209 1.4344871 6112839
-0.058514185 -0.55003417 1.436765 6310733
-0.056008473 -0.55096775 1.4392037 6376525
-0.053495452 -0.5519172 1.441684 6244682
-0.050987668 -0.55302089 1.4445667 6113354
-0.048474498 -0.55418235 1.4476008 6113353
-0.045951955 -0.55536312 1.4506851 6112326
-0.043428816 -0.55667961 1.4541237 5849667
-0.040906034 -0.5581705 1.4580183 5454138
-0.038414348 -0.56032085 1.4636353 5125173
-0.035930194 -0.5629077 1.4703925 4993073
-0.033468667 -0.56629139 1.4792312 4730416
-0.19541864 -0.55966842 1.4688761 4929335
-0.19179934 -0.55687952 1.4615567 5322037
-0.18833853 -0.5544793 1.4552569 5584952
-0.18504913 -0.55252266 1.4501219 5850951
-0.18191706 -0.55098623 1.4460896 6183514
-0.17888993 -0.54972756 1.4427859 6509137
-0.17593211 -0.54864776 1.4399518 6569792
-0.17296931 -0.54751951 1.4369906 6439233
-0.17003179 -0.54643822 1.4341527 6506825
-0.16712742 -0.54543161 1.4315107 6508881
-0.16429114 -0.54461884 1.4293778 6642009
-0.16149326 -0.54390949 1.427516 6709344
-0.15872927 -0.54329306 1.4258982 6710372
-0.15598975 -0.54274142 1.4244502 6775650
-0.1532708 -0.5422439 1.4231447 7166554
-0.15058088 -0.54183406 1.422069 7096649
-0.14790143 -0.541448 1.4210557 7093050
-0.14523485 -0.54109645 1.4201331 7159873
-0.14257789 -0.5407685 1.4192724 7100246
-0.13994013 -0.54050291 1.4185752 6513250
-0.13732234 -0.54030585 1.4180579 6447971
-0.13470177 -0.54009026 1.4174922 6380633
-0.13208182 -0.53986859 1.4169106 6241595
-0.12947817 -0.53970623 1.4164844 6302766
-0.1268813 -0.5395661 1.4161166 6176319
-0.12428574 -0.53942597 1.415749 5986390
-0.12171118 -0.53937304 1.4156098 5790040
-0.11914709 -0.53936505 1.4155891 5657169
-0.11658176 -0.53935117 1.4155524 5125943
-0.11401658 -0.5393371 1.4155157 4857377
-0.11146274 -0.53937751 1.4156216 5118748
-0.10891853 -0.53946745 1.4158576 4922138
-0.10638172 -0.53959918 1.4162035 5250333
-0.10384364 -0.53973085 1.4165492 5643295
-0.10130952 -0.53989029 1.4169674 5445917
-0.098784126 -0.5401057 1.4175332 4789529
-0.096262842 -0.5403558 1.4181892 4658968
-0.093739666 -0.54060858 1.4188527 4724249
-0.091227964 -0.54094362 1.4197321 4789785
-0.088715151 -0.54129124 1.4206445 4790039
-0.086203977 -0.54167014 1.421639 4789527
-0.083689265 -0.54204953 1.4226342 5117465
-0.08117076 -0.54242736 1.4236259 5314330
-0.078654796 -0.54284751 1.424729 5316896
-0.076137602 -0.54328746 1.4258834 5715508
-0.073617168 -0.54373431 1.4270563 5783358
-0.071106516 -0.54428858 1.4285109 5784131
-0.068594672 -0.54487526 1.4300507 5915205
-0.066092409 -0.54558706 1.4319189 6048075
-0.063583612 -0.54630065 1.433792 6114382
-0.061082818 -0.54714674 1.4360124 6180431
-0.058576509 -0.54801661 1.4382951 6312532
-0.056068048 -0.54894614 1.4407349 6377553
-0.053552113 -0.54988956 1.4432111 6310476
-0.051040486 -0.55097622 1.4460633 6113353
-0.048524827 -0.55213475 1.4491036 6113096
-0.045999758 -0.55331242 1.4521943 6112582
-0.043472901 -0.55460978 1.4555998 5849667
-0.040947452 -0.55609393 1.4594947 5586752
-0.038452305 -0.55822277 1.4650817 5190453
-0.035964672 -0.56078398 1.4718038 5058352
-0.033498891 -0.5641228 1.4805669 4795182
-0.19578645 -0.55805802 1.4716409 4863542
-0.19211228 -0.55513841 1.4639416 5257273
-0.18862653 -0.55268908 1.4574823 5517619
-0.18531615 -0.55069143 1.4522142 5982538
-0.18216334 -0.54911113 1.4480474 6117721
-0.17912757 -0.5478428 1.4447024 6509394
-0.17616537 -0.54676533 1.4418609 6504769
-0.17320789 -0.54567009 1.4389729 6374468
-0.17026301 -0.54458177 1.4361029 6441033
-0.16734976 -0.54356259 1.4334151 6441546
-0.16449249 -0.54269588 1.4311296 6706774
-0.16169262 -0.5419938 1.4292783 6774624
-0.15892255 -0.54137057 1.4276345 6775908
-0.1561756 -0.54080665 1.4261475 6906209
-0.15345161 -0.54030448 1.4248234 7164499
-0.15075836 -0.53989547 1.4237448 7029057
-0.14807098 -0.53949368 1.4226849 7093565
-0.14540128 -0.53914297 1.4217603 7295314
-0.142747 -0.53883791 1.4209559 6774879
-0.14010513 -0.53856945 1.420248 6382176
-0.13748014 -0.5383569 1.4196875 6643809
-0.13486117 -0.53816056 1.4191697 6442318
-0.1322386 -0.53794181 1.4185927 6434865
-0.12962577 -0.53775471 1.4180994 6238514
-0.12702592 -0.53761494 1.4177308 6312016
-0.12443221 -0.53749603 1.4174173 5921368
-0.12184789 -0.5374136 1.4171996 5855320
-0.11928233 -0.53741199 1.4171957 5589577
-0.1167169 -0.53741103 1.4171932 4793896
-0.11414938 -0.53740019 1.4171644 4989218
-0.11158546 -0.53740609 1.4171801 5120802
-0.1090417 -0.53751177 1.4174587 4987932
-0.10650204 -0.53764319 1.4178052 5315357
-0.10396112 -0.5377745 1.4181516 5708831
-0.10141996 -0.53791136 1.4185123 5642526
-0.098894611 -0.53814119 1.4191185 4921115
-0.096368589 -0.53837955 1.419747 4462616
-0.093844838 -0.53864408 1.4204446 4527896
-0.091329068 -0.53897065 1.4213057 4724504
-0.088811055 -0.53930241 1.4221807 4855319
-0.08629705 -0.53967905 1.4231739 4920600
-0.083779402 -0.54005539 1.4241664 5117464
-0.081258357 -0.54043305 1.4251623 5249049
-0.078740217 -0.54085535 1.4262762 5251105
-0.076218307 -0.54127955 1.4273947 5649717
-0.073695272 -0.54172546 1.4285705 5783103
-0.071183719 -0.54229099 1.4300618 5916745
-0.068667188 -0.54285997 1.4315624 5851211
-0.066160969 -0.54355842 1.4334041 5851724
-0.063651048 -0.54428202 1.4353123 6047562
-0.061147839 -0.54512715 1.4375411 6179404
-0.058638968 -0.54599452 1.4398285 6442576
-0.056127749 -0.54692 1.4422688 6442319
-0.053609185 -0.54786038 1.4447489 6375755
-0.051093414 -0.54892755 1.4475629 6179403
-0.048575252 -0.5500828 1.4506097 6113610
-0.046047665 -0.55125725 1.4537067 6112840
-0.043517783 -0.55254507 1.4571025 5915974
-0.040988959 -0.55401319 1.4609742 5652544
-0.038490348 -0.5561204 1.466531 5255732
-0.035999227 -0.55865598 1.4732177 5058096
-0.033529378 -0.56195372 1.4819142 4728618
-0.031193502 -0.56826591 1.4985595 7300197
-0.19620568 -0.55658364 1.474792 4795437
-0.19242626 -0.5533914 1.4663339 5256502
-0.18891539 -0.55089325 1.4597144 5516335
-0.18558395 -0.54885477 1.4543128 5982538
-0.1824103 -0.54723096 1.4500103 6117977
-0.17936377 -0.54594684 1.4466076 6509651
-0.17639719 -0.54487151 1.4437585 6506567
-0.1734468 -0.54381454 1.4409575 6376524
-0.17049775 -0.54272962 1.4380829 6506568
-0.16757362 -0.54169166 1.4353325 6440261
-0.16469605 -0.54077375 1.4329004 6640724
-0.16189243 -0.54007334 1.4310446 6774880
-0.15911636 -0.53944337 1.4293752 6645092
-0.15636227 -0.53886861 1.4278523 6839901
-0.15363277 -0.53836048 1.4265058 7097936
-0.15093625 -0.53795242 1.4254246 7028802
-0.14824381 -0.53754508 1.4243454 7161929
-0.14556807 -0.53718495 1.4233913 7101531
-0.14291652 -0.53690273 1.4226434 6579041
-0.14027144 -0.53663492 1.4219337 6579042
-0.1376383 -0.53640366 1.4213209 6773595
-0.13501628 -0.53620774 1.4208019 6504000
-0.13239577 -0.53601038 1.4202785 6434611
-0.12977374 -0.53579873 1.4197178 6440263
-0.12717085 -0.53565931 1.4193484 6052441
-0.12457978 -0.53556484 1.4190983 5855834
-0.12199236 -0.53548259 1.4188802 5855062
-0.1194163 -0.53544754 1.4187876 5191993
-0.11684801 -0.53544664 1.4187853 4924968
-0.11427974 -0.53544569 1.4187827 5716794
-0.11171144 -0.5354448 1.4187801 5783100
-0.10916513 -0.53555161 1.4190632 4923683
-0.10662231 -0.53568107 1.4194063 5446688
-0.1040782 -0.53581023 1.4197488 5774111
-0.10153291 -0.53593987 1.4200919 5511454
-0.099002764 -0.5361582 1.4206704 5052443
-0.096474029 -0.53639597 1.4213005 4658969
-0.093950249 -0.53667516 1.4220402 4527639
-0.091431707 -0.53700078 1.4229031 4658968
-0.088908456 -0.5373168 1.4237403 4789271
-0.086390033 -0.53768158 1.4247073 4986136
-0.08386974 -0.53805709 1.4257019 5117719
-0.081346639 -0.53843772 1.4267106 5052184
-0.078825817 -0.53885895 1.4278269 5185056
-0.076301083 -0.53928101 1.4289451 5714996
-0.073774986 -0.53972274 1.4301157 5650233
-0.071261086 -0.54028898 1.4316161 5783104
-0.068741895 -0.54085666 1.4331199 5783106
-0.066229664 -0.54152548 1.4348927 5980484
-0.063719533 -0.54226679 1.4368565 6111299
-0.061213002 -0.54310334 1.4390728 6242885
-0.058701545 -0.54396832 1.4413652 6507341
-0.056187585 -0.54488969 1.4438064 6508625
-0.053666428 -0.54582763 1.4462917 6443346
-0.051146455 -0.54687446 1.4490656 6180945
-0.04862579 -0.54802668 1.4521186 6049102
-0.046095673 -0.54919803 1.4552224 6047304
-0.043562762 -0.5504759 1.4586084 5849668
-0.041030549 -0.55192822 1.4624566 5585982
-0.038528461 -0.55401391 1.4679832 5255218
-0.036033846 -0.55652416 1.4746344 5057839
-0.033559911 -0.55978078 1.4832637 4663338
-0.03121274 -0.56590223 1.4994836 7300196
-0.19662672 -0.55510271 1.4779568 4663080
-0.19274125 -0.55163884 1.4687343 5188396
-0.18920517 -0.54909199 1.4619533 5580586
-0.18585251 -0.54701281 1.4564174 5913662
-0.18265788 -0.5453456 1.4519784 6117207
-0.17959575 -0.54403108 1.4484787 6445915
-0.17662704 -0.5429647 1.4456394 6509393
-0.17367689 -0.5419243 1.4428693 6508880
-0.17073311 -0.54087222 1.4400682 6505797
-0.16779807 -0.5398156 1.4372549 6439234
-0.16491267 -0.53888804 1.4347854 6378580
-0.16209276 -0.53814816 1.4328154 6709858
-0.15931056 -0.53751135 1.4311199 6579299
-0.15655297 -0.53693813 1.4295936 6905179
-0.15381441 -0.53641176 1.4281921 7097421
-0.15111455 -0.53600472 1.4271086 6963780
-0.14841878 -0.53559834 1.4260266 7296597
-0.14573742 -0.5352307 1.4250473 6906465
-0.14308648 -0.53496313 1.4243351 6645092
-0.14043815 -0.53469586 1.4236237 6775394
-0.13779683 -0.53444576 1.4229579 6771282
-0.13517173 -0.53425044 1.4224375 6501172
-0.13254857 -0.53405511 1.4219177 6634301
-0.12992597 -0.53385442 1.4213834 6509908
-0.12731901 -0.53371119 1.4210019 5987163
-0.12472768 -0.53362906 1.4207833 5920856
-0.1221372 -0.53354698 1.4205648 5786442
-0.11955062 -0.53347886 1.4203832 5189937
-0.11697942 -0.5334779 1.4203808 5321524
-0.11440825 -0.53347689 1.4203782 5982022
-0.11183901 -0.53348523 1.4204004 5059123
-0.1092857 -0.5335716 1.4206305 4922913
-0.10674006 -0.53370064 1.4209738 5446688
-0.10419318 -0.53382963 1.4213172 5774369
-0.10164755 -0.53397173 1.4216954 5643039
-0.099111922 -0.53417498 1.4222368 5052441
-0.096579693 -0.53440803 1.4228573 4789784
-0.094055884 -0.53470165 1.4236391 4658968
-0.091532357 -0.53501356 1.4244695 4593175
-0.089006379 -0.53532863 1.4253083 4723991
-0.086483508 -0.5356819 1.426249 4855064
-0.083960257 -0.53605443 1.4272407 5052184
-0.081435099 -0.53643811 1.4282624 5052440
-0.07891161 -0.53685826 1.4293811 5185055
-0.076384202 -0.53727913 1.4305015 5584181
-0.073854581 -0.53771365 1.4316586 5650490
-0.071338296 -0.53828037 1.4331675 5979712
-0.068816766 -0.53884876 1.4346808 5846842
-0.066300191 -0.5395022 1.4364204 6111042
-0.063788153 -0.54024708 1.438404 6111814
-0.061278298 -0.54107499 1.440608 6244427
-0.058764257 -0.54193777 1.4429052 6442576
-0.05624754 -0.54285496 1.4453471 6575447
-0.053723797 -0.5437904 1.4478377 6510424
-0.051199608 -0.54481709 1.4505713 6180945
-0.048676424 -0.54596615 1.4536309 6113867
-0.046143778 -0.54713428 1.456741 6047046
-0.043607831 -0.54840261 1.4601176 5848897
-0.041072227 -0.54983896 1.4639421 5584697
-0.038566649 -0.55190325 1.4694381 5254704
-0.036068313 -0.55438465 1.4760449 5123375
-0.033585899 -0.55752742 1.4844122 4794924
-0.031232003 -0.56353557 1.500409 5654602
-0.19707844 -0.55369669 1.4813521 6046018
-0.19305727 -0.54988045 1.4711423 5120547
-0.18949577 -0.5472852 1.4641988 5579557
-0.18612264 -0.54516786 1.4585342 5911863
-0.18290618 -0.54345518 1.4539522 6180944
-0.17982951 -0.54211396 1.4503639 6445401
-0.17685746 -0.54105306 1.4475255 6510936
-0.173904 -0.54001772 1.444756 6639438
-0.17096692 -0.53900272 1.4420402 6503998
-0.16802309 -0.53793448 1.4391823 6437950
-0.16513483 -0.53701335 1.4367181 6246994
-0.16229361 -0.53621829 1.4345907 6513762
-0.15950528 -0.53557479 1.4328692 6514018
-0.15674411 -0.53500277 1.4313388 6905178
-0.15399659 -0.53445888 1.4298838 7032654
-0.15129337 -0.53405285 1.4287975 7098447
-0.14859429 -0.53364742 1.4277127 7037279
-0.14591104 -0.53328562 1.4267447 6776164
-0.1432568 -0.53301883 1.4260309 6710885
-0.14060524 -0.53275216 1.4253175 6840928
-0.13795635 -0.53248596 1.4246051 6768970
-0.13532753 -0.53228849 1.4240772 6698551
-0.13270129 -0.53209376 1.4235561 6704460
-0.13007697 -0.53189915 1.4230354 6315355
-0.12747036 -0.53177065 1.4226915 6052956
-0.12487596 -0.53168869 1.4224722 6050643
-0.12228236 -0.53160667 1.4222531 5585723
-0.11968957 -0.5315249 1.4220341 5387316
-0.11711112 -0.53150469 1.4219799 5784900
-0.11453706 -0.53150356 1.4219773 5454909
-0.11196955 -0.53153396 1.4220583 4727332
-0.10940733 -0.53159118 1.4222116 5053470
-0.10685807 -0.53171581 1.4225448 5446431
-0.10430841 -0.5318445 1.4228892 5774113
-0.1017635 -0.53200448 1.4233172 5511455
-0.099225029 -0.53220731 1.4238598 5117467
-0.096685588 -0.53241563 1.4244173 4724503
-0.094159797 -0.53271264 1.4252119 4593944
-0.091632321 -0.5330165 1.426025 4921624
-0.089104511 -0.53333616 1.4268799 4855576
-0.086578943 -0.53368849 1.4278228 4724761
-0.084050976 -0.53404742 1.4287829 4855832
-0.081523769 -0.53443396 1.4298172 4921624
-0.078997597 -0.5348531 1.4309384 5119518
-0.076467372 -0.53527212 1.4320595 5453109
-0.073936112 -0.53571296 1.433239 5651517
-0.071414784 -0.5362606 1.4347038 5981510
-0.068890683 -0.5368278 1.4362216 6047818
-0.066371575 -0.53748024 1.4379669 6049102
-0.063856915 -0.53822327 1.4399546 6313302
-0.061343737 -0.53904247 1.4421465 6180688
-0.058827117 -0.53990293 1.4444486 6376526
-0.056307629 -0.54081589 1.4468911 6508369
-0.053781271 -0.54174888 1.4493871 6442320
-0.051252864 -0.54275548 1.4520804 6113610
-0.048727162 -0.54390144 1.4551461 6113352
-0.046191983 -0.54506636 1.4582628 6112840
-0.043652989 -0.54632479 1.4616296 5848897
-0.041113988 -0.54774559 1.4654306 5583413
-0.038604908 -0.5497883 1.4708958 5254704
-0.036101021 -0.55221337 1.4773834 5188912
-0.033610597 -0.55524844 1.4855038 4794667
-0.031221766 -0.56063586 1.499917 5917002
-0.19753383 -0.55228865 1.4847752 5980482
-0.19337435 -0.54811639 1.4735584 5054498
-0.18979542 -0.54549605 1.4665141 5513249
-0.18640761 -0.54335839 1.4607674 5908523
-0.18315701 -0.54156506 1.4559461 6178376
-0.18007012 -0.54021049 1.4523044 6508882
-0.1770885 -0.53913623 1.4494164 6573133
-0.17413168 -0.53810626 1.4466474 6636613
-0.17119925 -0.53712142 1.4439999 6502457
-0.16825455 -0.53606695 1.441165 6567737
-0.1653576 -0.53513396 1.4386563 6246480
-0.16249917 -0.53429741 1.4364078 6382177
-0.15970048 -0.53363353 1.4346228 6514277
-0.15693669 -0.53306609 1.4330974 6775136
-0.15418634 -0.53252608 1.4316456 6904152
-0.1514729 -0.53209728 1.4304928 7101788
-0.14877044 -0.5316928 1.4294053 6776165
-0.14608009 -0.53131801 1.4283978 6776935
-0.14342751 -0.53106958 1.42773 6776678
-0.14077277 -0.53080386 1.4270158 6840671
-0.13812061 -0.5305382 1.4263015 6571592
-0.13548371 -0.53032213 1.4257205 6834506
-0.13285437 -0.53012794 1.4251983 6511450
-0.13022964 -0.52994448 1.4247053 6119519
-0.12761708 -0.52980453 1.4243288 6118234
-0.12502314 -0.52973759 1.424149 5983820
-0.12242788 -0.52966195 1.4239457 5585979
-0.11983198 -0.52958035 1.4237261 5718850
-0.11724311 -0.52952689 1.4235826 5522242
-0.11466616 -0.52952605 1.4235802 4860461
-0.11210041 -0.52957815 1.4237201 4988450
-0.10953519 -0.52963519 1.4238737 4922140
-0.10697634 -0.52972645 1.4241192 5315101
-0.10442388 -0.52985489 1.4244645 5773856
-0.10187972 -0.53003269 1.4249425 5576735
-0.099338382 -0.53023511 1.4254866 5182747
-0.096793063 -0.53042632 1.4260006 4724761
-0.094262682 -0.53071213 1.4267691 4266262
-0.091732487 -0.53101516 1.4275839 4659480
-0.089202866 -0.53133923 1.4284549 4724504
-0.086674571 -0.53169072 1.4293997 4659225
-0.084142923 -0.53204256 1.430346 4856089
-0.081612624 -0.53242576 1.4313756 4987162
-0.079083644 -0.53284281 1.432497 5119264
-0.076550707 -0.53326046 1.4336201 5649204
-0.074017815 -0.53370786 1.4348228 5650748
-0.071491428 -0.53423655 1.4362438 6047818
-0.06896469 -0.5348022 1.4377648 6049104
-0.066443108 -0.53545386 1.4395168 5917259
-0.063925847 -0.53619498 1.441509 6114125
-0.061409421 -0.53700644 1.4436907 6112326
-0.058890104 -0.53786361 1.4459952 6308935
-0.056367844 -0.53877252 1.4484383 6374986
-0.053838752 -0.53970146 1.450936 6441035
-0.051306233 -0.54068971 1.4535925 6178376
-0.048778012 -0.54183233 1.4566646 6178632
-0.046240292 -0.54299408 1.459788 6179146
-0.043698244 -0.5442428 1.4631448 5914946
-0.041155834 -0.54564792 1.4669222 5583927
-0.038643248 -0.54766929 1.4723566 5254962
-0.036135901 -0.55007005 1.478811 5123376
-0.033635713 -0.55297256 1.486614 4663852
-0.031213891 -0.55778021 1.4995389 5917002
-0.19804332 -0.55101854 1.4886048 5981253
-0.19369243 -0.54634637 1.4759824 4989476
-0.19010687 -0.54373223 1.4689206 5513250
-0.18669349 -0.54154372 1.4630077 5841445
-0.18342189 -0.53970909 1.4580517 6172723
-0.18031138 -0.53830194 1.4542501 6570307
-0.17731991 -0.5372138 1.4513104 6701378
-0.17435996 -0.53618979 1.4485439 6633787
-0.17143221 -0.53523505 1.4459648 6566709
-0.16848336 -0.53418374 1.4431247 6566452
-0.16558094 -0.53324902 1.4405993 6441547
-0.16271836 -0.53241456 1.4383452 6315357
-0.15989614 -0.53168726 1.4363803 6579814
-0.15713277 -0.53113484 1.4348879 6710372
-0.15437904 -0.53059691 1.4334347 6841443
-0.1516528 -0.53013688 1.4321918 7038308
-0.14894703 -0.52973348 1.4311019 6973544
-0.14625569 -0.5293681 1.4301151 6842728
-0.14359301 -0.52909523 1.4293773 6842729
-0.14094032 -0.52884966 1.4287143 6711141
-0.13828526 -0.52858579 1.4280018 6773595
-0.13564025 -0.52835137 1.4273679 6643292
-0.13300782 -0.52815741 1.4268442 6316127
-0.13038643 -0.52800065 1.4264207 6053727
-0.12776877 -0.52785295 1.4260216 6052955
-0.12516642 -0.52776384 1.4257808 5984847
-0.12257015 -0.52769691 1.4256004 5918026
-0.11997456 -0.52763021 1.42542 5720391
-0.1173765 -0.52754956 1.4252021 4993844
-0.11479919 -0.52756059 1.4252319 4727333
-0.11223156 -0.52761769 1.4253858 4857120
-0.10966337 -0.52767462 1.42554 4856346
-0.10709488 -0.52773279 1.4256973 5315355
-0.10453963 -0.52786094 1.4260433 5708576
-0.1019962 -0.52805662 1.4265717 5576990
-0.099449582 -0.52824551 1.4270822 5248793
-0.096901678 -0.52843755 1.4276009 4593432
-0.094365783 -0.52870727 1.4283297 4462616
-0.091832884 -0.52900958 1.4291463 4593430
-0.089301445 -0.529338 1.4300334 4658968
-0.0867704 -0.52968842 1.4309802 4658712
-0.084235966 -0.53003901 1.4319274 5052442
-0.081701525 -0.5304119 1.4329349 5117979
-0.079169855 -0.53082794 1.4340587 5249825
-0.076634228 -0.53124452 1.4351841 5714228
-0.074099705 -0.53169841 1.4364102 5584183
-0.071568243 -0.53220797 1.4377868 5782078
-0.069039807 -0.53277946 1.4393307 5782592
-0.066514865 -0.53342372 1.4410713 5782333
-0.063994914 -0.53416228 1.4430665 6044735
-0.061475471 -0.53496814 1.4452434 6110529
-0.058953233 -0.53582007 1.4475452 6308678
-0.056428194 -0.53672469 1.449989 6441034
-0.053896308 -0.53764933 1.452487 6441034
-0.051359721 -0.53861946 1.4551077 6309191
-0.048828967 -0.53975898 1.4581863 6178632
-0.046288703 -0.54091746 1.4613161 6179146
-0.043743592 -0.5421564 1.4646633 5980998
-0.041197769 -0.54354584 1.4684167 5650234
-0.038681667 -0.54554605 1.4738203 5254705
-0.036172368 -0.54794568 1.4803032 5124146
-0.033662461 -0.55071926 1.4877961 4730159
-0.031217743 -0.55513442 1.4997239 5982795
-0.19887166 -0.55061764 1.4948312 8803374
-0.19401157 -0.54457057 1.4784144 4924967
-0.19041936 -0.54196298 1.4713352 5448227
-0.18698037 -0.53972358 1.465256 5842729
-0.18368956 -0.53785378 1.4601796 6171180
-0.18055326 -0.53638822 1.456201 6566453
-0.17754959 -0.53527921 1.4531902 6632501
-0.17458881 -0.53426832 1.4504454 6632502
-0.17165813 -0.53331965 1.4478703 6631731
-0.16871247 -0.53229451 1.4450872 6565424
-0.16580109 -0.53134686 1.4425147 6570306
-0.16293564 -0.53051859 1.4402659 6510937
-0.16009542 -0.52974677 1.4381704 6513251
-0.15732935 -0.52919883 1.4366829 6709601
-0.15457219 -0.52866298 1.4352283 6905181
-0.15183315 -0.5281719 1.4338949 6969689
-0.14912401 -0.52776945 1.4328026 7103330
-0.14643171 -0.52741361 1.4318361 6776935
-0.14375888 -0.52711612 1.4310286 6777194
-0.14110307 -0.52687132 1.430364 6645607
-0.13844971 -0.52662671 1.4296999 6513507
-0.13579716 -0.52637577 1.429019 6579299
-0.13316593 -0.52619964 1.4285405 6185568
-0.13054362 -0.52605218 1.4281403 6119262
-0.12792276 -0.52590489 1.4277403 6118748
-0.12531 -0.52578551 1.4274163 6182999
-0.12271074 -0.52571893 1.4272356 6050641
-0.12011215 -0.52565235 1.4270549 5585981
-0.11751422 -0.52558589 1.4268744 5189682
-0.11493314 -0.52559334 1.4268948 5453368
-0.11236302 -0.52565259 1.4270554 5058094
-0.10979182 -0.52570951 1.4272097 4922910
-0.10722009 -0.52576619 1.427364 5446685
-0.10465802 -0.52587456 1.4276582 5643040
-0.10211015 -0.52606148 1.4281654 5511455
-0.099559337 -0.52624261 1.4286572 5183259
-0.097010933 -0.5264464 1.4292105 4790298
-0.09447211 -0.52671462 1.429939 4724503
-0.091933496 -0.52699947 1.430712 4724503
-0.089400239 -0.52733219 1.4316152 4790040
-0.086866274 -0.52768058 1.4325614 4789783
-0.084328495 -0.52802658 1.4335003 4986905
-0.081790656 -0.52839404 1.4344981 5183259
-0.079256259 -0.52880859 1.4356236 5315360
-0.076717921 -0.5292241 1.4367516 5648434
-0.074181765 -0.52968431 1.4380012 5583411
-0.071645215 -0.53017503 1.4393332 5780021
-0.069115527 -0.53075552 1.4409091 5846071
-0.066586867 -0.53138983 1.4426312 5913149
-0.064064145 -0.53212517 1.4446274 6044221
-0.061541654 -0.53292519 1.4467993 6176320
-0.059016496 -0.53377211 1.4490986 6374984
-0.056488663 -0.5346725 1.451543 6441291
-0.05395399 -0.53559279 1.4540416 6441548
-0.051413313 -0.53654486 1.4566261 6309962
-0.048880033 -0.53768134 1.4597113 6178889
-0.04633721 -0.5388366 1.4628477 6178377
-0.043789037 -0.54006577 1.4661849 5979456
-0.041239783 -0.54143953 1.4699144 5583413
-0.038720153 -0.54341859 1.4752868 5255475
-0.036208987 -0.54581827 1.4818017 5124917
-0.033682145 -0.54834664 1.4886663 4862516
-0.03122833 -0.55260724 1.5002326 6569520
-0.19433177 -0.54278874 1.4808544 4795437
-0.19073288 -0.5401876 1.4737576 5317926
-0.18726812 -0.53789794 1.4675109 5843757
-0.18396094 -0.53600144 1.4623368 6241085
-0.1808024 -0.53448892 1.4582105 6369329
-0.17778006 -0.53334028 1.4550765 6565937
-0.17481831 -0.53234166 1.4523518 6631730
-0.17188336 -0.5313952 1.44977 6631473
-0.1689422 -0.5304001 1.4470551 6630446
-0.16602796 -0.52945942 1.4444885 6500145
-0.16315222 -0.52861351 1.4421806 6569793
-0.16030836 -0.52784467 1.4400834 6639697
-0.15752642 -0.52725804 1.4384825 6837590
-0.15476581 -0.52672422 1.4370263 6967376
-0.15201859 -0.52621835 1.4356463 6899272
-0.14930141 -0.52580088 1.4345071 7165527
-0.14660817 -0.52545428 1.4335616 7037796
-0.14392513 -0.52513248 1.4326837 6776678
-0.1412662 -0.52488834 1.4320176 6906466
-0.13860969 -0.52464432 1.4313519 6904410
-0.13595566 -0.52440065 1.4306871 6575446
-0.13332669 -0.52424598 1.4302652 6315613
-0.13070118 -0.52409893 1.429864 6119262
-0.12807709 -0.52395195 1.4294629 6183514
-0.1254545 -0.52380508 1.4290624 6180688
-0.12285166 -0.5237363 1.4288747 5782847
-0.12025008 -0.52367002 1.4286935 5647150
-0.11765053 -0.5236097 1.4285295 5518646
-0.11506092 -0.52359205 1.4284811 5851208
-0.11248861 -0.52365416 1.4286506 5718851
-0.1099157 -0.52371633 1.4288199 5056552
-0.10734217 -0.52377838 1.4289894 5250335
-0.10477476 -0.5238741 1.4292506 5643553
-0.10222291 -0.52405453 1.4297428 5708063
-0.099669307 -0.52423513 1.4302353 5379868
-0.097120434 -0.52445078 1.4308238 4790040
-0.094578803 -0.52471834 1.4315538 4790553
-0.092034556 -0.52498627 1.4322848 4855576
-0.089498915 -0.52532011 1.4331956 4855833
-0.086961746 -0.52566463 1.4341357 4659736
-0.084421232 -0.5260098 1.435077 4528408
-0.081881203 -0.52637964 1.4360862 4921114
-0.079342835 -0.52678496 1.437192 5249822
-0.076801799 -0.52719933 1.4383223 5582895
-0.07426402 -0.52766579 1.4395955 5713712
-0.071724012 -0.52815008 1.4409163 5842731
-0.069191411 -0.52872735 1.4424913 5909552
-0.066659026 -0.52935165 1.4441946 6043966
-0.064133503 -0.53008366 1.4461915 6110784
-0.061607987 -0.53087795 1.4483588 6177605
-0.059079885 -0.53171962 1.450655 6442062
-0.056549266 -0.53261596 1.4531002 6442318
-0.054011792 -0.5335319 1.4555993 6441806
-0.051468171 -0.53447801 1.4581804 6310476
-0.048931204 -0.53559911 1.4612392 6178633
-0.046385828 -0.53675115 1.4643823 6176835
-0.043834578 -0.53797084 1.4677095 5911607
-0.041281886 -0.53932893 1.4714149 5582900
-0.038758852 -0.5412885 1.4767611 5256502
-0.036245689 -0.54368663 1.4833037 5125945
-0.033706017 -0.54603887 1.4897213 4929079
-0.031249063 -0.55025679 1.5012286 6570289
-0.19466184 -0.54102582 1.4833696 4731699
-0.19104742 -0.53840643 1.4761879 5188396
-0.18755677 -0.53606665 1.4697728 5778220
-0.18423313 -0.53414363 1.4645004 6377552
-0.18106094 -0.53261 1.4602954 6438720
-0.17802924 -0.53145045 1.4571161 6500144
-0.17505296 -0.53042382 1.4543014 6565937
-0.17210919 -0.52946573 1.4516747 6565680
-0.16917257 -0.52850044 1.4490283 6630188
-0.1662589 -0.5275777 1.4464978 6564139
-0.16336939 -0.52670306 1.4441001 6499118
-0.16052549 -0.52594954 1.4420341 6697526
-0.15772399 -0.52531224 1.4402866 6896189
-0.15495996 -0.52478051 1.4388288 6830395
-0.15220909 -0.5242759 1.4374453 7027002
-0.14947997 -0.52383006 1.4362228 7094337
-0.14678504 -0.52349019 1.4352911 7163214
-0.1440936 -0.52315086 1.4343607 7033682
-0.14142968 -0.52290064 1.4336746 7097678
-0.13877004 -0.52265745 1.4330077 6961982
-0.13612038 -0.52244329 1.4324205 6765118
-0.13348548 -0.52227843 1.4319685 6837332
-0.13085911 -0.52214098 1.4315917 6117463
-0.12823182 -0.52199435 1.4311898 6245454
-0.12560602 -0.5218479 1.4307883 6109244
-0.12299289 -0.52174896 1.4305171 6038312
-0.1203883 -0.52168292 1.4303358 5775394
-0.1177889 -0.52163672 1.4302094 5516590
-0.1151911 -0.5215959 1.4300973 5783617
-0.11261383 -0.52164823 1.4302408 5585980
-0.11003805 -0.52171016 1.4304105 4925222
-0.10746194 -0.52177328 1.4305837 5053983
-0.10489349 -0.52187777 1.4308701 5512480
-0.10233593 -0.52204317 1.4313235 5708574
-0.099779554 -0.52222317 1.4318172 5445916
-0.097230196 -0.52245063 1.4324408 4790296
-0.094685733 -0.52271748 1.4331725 4659224
-0.092137501 -0.52297807 1.4338868 4724761
-0.089597307 -0.52330059 1.4347713 4921111
-0.087057419 -0.52364427 1.4357135 5052438
-0.084514163 -0.52398825 1.4366567 4921623
-0.081971966 -0.52436072 1.437678 5052442
-0.079429619 -0.52475685 1.4387639 5249565
-0.076885872 -0.52516997 1.4398966 5517103
-0.074346453 -0.52564293 1.4411933 5582383
-0.071803518 -0.52612448 1.4425136 5776936
-0.069267459 -0.52669454 1.4440768 5844529
-0.066731334 -0.527309 1.4457612 6044735
-0.064203031 -0.52803773 1.4477592 6111555
-0.061674461 -0.52882624 1.4499214 6179147
-0.059143417 -0.52966285 1.452215 6442833
-0.056610003 -0.53055489 1.4546608 6442062
-0.054069728 -0.5314666 1.4571607 6441291
-0.051523469 -0.53241003 1.4597471 6310219
-0.048982471 -0.53351271 1.4627705 6178633
-0.046434544 -0.53466147 1.4659201 6111299
-0.043880209 -0.53587133 1.4692376 5911865
-0.041324075 -0.5372141 1.4729189 5583669
-0.038798552 -0.53916728 1.4782739 5257787
-0.036282461 -0.54155058 1.4848084 5126716
-0.033737272 -0.54384619 1.4911025 4929337
-0.031285211 -0.54817283 1.5029652 6636851
-0.19505352 -0.53942406 1.4863544 4602682
-0.19136205 -0.53661674 1.4786192 4862514
-0.18784609 -0.53422904 1.4720401 5516590
-0.18450609 -0.53228039 1.4666703 6311247
-0.18132021 -0.53072572 1.4623867 6376270
-0.17827916 -0.52955526 1.4591615 6435123
-0.17529157 -0.52851087 1.4562837 6434864
-0.17234258 -0.5275526 1.4536433 6565680
-0.16940418 -0.52659774 1.4510121 6630445
-0.16649048 -0.5256905 1.4485123 6498602
-0.16358715 -0.52478766 1.4460247 6498347
-0.16074321 -0.52404916 1.4439898 6630447
-0.15792671 -0.52337712 1.442138 6828083
-0.15515457 -0.52283198 1.4406359 6893875
-0.15240006 -0.52232856 1.4392489 6959924
-0.14966063 -0.52186036 1.4379587 7090996
-0.14696234 -0.52152145 1.4370246 7222327
-0.14426754 -0.52118289 1.436092 7288120
-0.14159356 -0.52090865 1.4353361 7221299
-0.13893434 -0.52067924 1.4347043 7022892
-0.13628612 -0.52048331 1.4341645 6825513
-0.13364254 -0.52029794 1.4336535 6761520
-0.13101335 -0.52016199 1.433279 6565685
-0.12838547 -0.52002627 1.4329047 6301742
-0.12575792 -0.51988596 1.4325184 6103333
-0.12313446 -0.51975727 1.4321637 6167840
-0.12052887 -0.51969999 1.4320059 5840158
-0.11792758 -0.5196591 1.4318933 5316126
-0.11532673 -0.51961845 1.4317813 5317670
-0.11273932 -0.51963776 1.4318347 5186341
-0.1101607 -0.51969969 1.4320049 5053470
-0.10758264 -0.51976699 1.4321904 5249565
-0.1050125 -0.51987696 1.4324937 5709602
-0.10245062 -0.52003443 1.4329276 5643553
-0.099890023 -0.52020675 1.4334023 5315101
-0.097340204 -0.52044588 1.4340614 4790296
-0.094791591 -0.52070487 1.4347746 4659224
-0.092239499 -0.52095866 1.4354742 4790041
-0.08969593 -0.52127677 1.4363506 4986648
-0.087153301 -0.52161944 1.4372947 4986903
-0.084607318 -0.52196258 1.4382402 4921880
-0.082062922 -0.52233744 1.4392731 5052185
-0.07951659 -0.52272433 1.4403392 5249311
-0.07697013 -0.52313632 1.4414744 5319470
-0.074429065 -0.52361548 1.442795 5582897
-0.07188233 -0.52408808 1.4440968 5844013
-0.069343492 -0.52465606 1.445662 5846070
-0.066803791 -0.5252617 1.4473312 5979198
-0.064272687 -0.52598733 1.4493303 6045763
-0.061741069 -0.52677006 1.4514873 6112327
-0.059207171 -0.52760226 1.4537803 6244170
-0.05667074 -0.52848828 1.4562216 6376268
-0.054127783 -0.52939683 1.458725 6441034
-0.051578887 -0.53033763 1.4613173 6179147
-0.049033858 -0.53142184 1.4643048 6179917
-0.046483353 -0.53256744 1.4674613 6112583
-0.043925937 -0.5337677 1.4707687 5979199
-0.041366354 -0.53509474 1.4744254 5717825
-0.038838431 -0.53704292 1.4797933 5258816
-0.036319308 -0.53941029 1.4863163 5061436
-0.033771627 -0.54169834 1.4926211 4929080
-0.031320609 -0.54606962 1.5046659 6702130
-0.19550572 -0.53797787 1.4898002 4669761
-0.19167554 -0.53481501 1.4810414 4799034
-0.18813486 -0.53238189 1.4743032 5189938
-0.18478355 -0.53042197 1.4688756 6045248
-0.18159142 -0.52886856 1.4645741 6178635
-0.17852825 -0.52765024 1.4612002 6306362
-0.17553344 -0.52660048 1.4582931 6304820
-0.1725774 -0.52563655 1.455624 6500401
-0.16963437 -0.52468324 1.4529836 6630702
-0.16671561 -0.52377599 1.4504713 6630188
-0.16381253 -0.52288967 1.4480169 6498347
-0.16096152 -0.52214348 1.4459509 6629419
-0.15814091 -0.52147305 1.4440941 6695983
-0.15534969 -0.52087855 1.4424475 6893361
-0.15259303 -0.52038157 1.4410713 6893875
-0.14984542 -0.51989871 1.4397341 6959153
-0.14713898 -0.51954406 1.4387519 7155504
-0.1444419 -0.51921016 1.4378276 7221297
-0.1417578 -0.51891178 1.437001 7089198
-0.13910377 -0.51871419 1.4364542 6957355
-0.13645226 -0.51851887 1.4359126 6825256
-0.13380276 -0.51832348 1.4353719 6758950
-0.13116764 -0.51817733 1.4349669 6627621
-0.12853663 -0.51804167 1.4345919 6430755
-0.12590705 -0.51790655 1.4342171 6299425
-0.12327879 -0.51777118 1.4338424 6168096
-0.12067097 -0.5177176 1.4336941 5839900
-0.1180666 -0.51767689 1.4335814 5314840
-0.11546267 -0.51763618 1.4334688 5184027
-0.11286511 -0.51762289 1.4334319 5052955
-0.11028416 -0.51768708 1.4336097 5052442
-0.1077036 -0.5177561 1.4338007 5314588
-0.1051318 -0.5178718 1.434121 5708833
-0.10256702 -0.51802874 1.4345555 5511968
-0.10000075 -0.51818609 1.4349914 5249309
-0.097448967 -0.51842886 1.4356636 4856089
-0.094896592 -0.51868176 1.4363642 4659480
-0.092342176 -0.51893729 1.4370719 4527897
-0.089794762 -0.51924843 1.4379332 4725020
-0.087249383 -0.51959002 1.4388795 4856091
-0.084700666 -0.51993227 1.4398271 4855578
-0.082154088 -0.52030963 1.4408721 4986650
-0.079604112 -0.52068967 1.4419246 5118495
-0.077055469 -0.52110428 1.4430729 5254190
-0.07451155 -0.52158123 1.4443936 5583926
-0.071961649 -0.52204955 1.4456905 5846841
-0.069419235 -0.52260947 1.4472409 5584953
-0.066877186 -0.52321619 1.4489212 5847355
-0.064342581 -0.52393293 1.4509062 6045249
-0.061807834 -0.52470958 1.4530568 6112327
-0.059271283 -0.52553946 1.4553547 6244941
-0.056731544 -0.52641666 1.4577839 6443090
-0.054185949 -0.52732247 1.4602928 6377297
-0.051634416 -0.52826065 1.4628906 6244941
-0.049085349 -0.52932668 1.4658425 6181202
-0.046532281 -0.53046888 1.4690058 6180688
-0.043971758 -0.53165954 1.4723029 6049104
-0.04140871 -0.5329712 1.4759353 5786958
-0.038878396 -0.53491426 1.481316 5258559
-0.036356226 -0.53726548 1.4878273 5061180
-0.033807129 -0.53956324 1.4941901 4863031
-0.031356093 -0.54396147 1.5063703 4468786
-0.1959601 -0.53652531 1.4932626 4604482
-0.19199006 -0.5330075 1.4834716 4801346
-0.18842457 -0.53052884 1.4765732 4863801
-0.18506254 -0.52855998 1.4710935 5713457
-0.18186435 -0.52700859 1.4667754 5977657
-0.17877799 -0.52573991 1.4632444 6112578
-0.17577855 -0.52469248 1.4603294 6046015
-0.17281288 -0.52371544 1.4576099 6305334
-0.16986515 -0.52276337 1.4549603 6500916
-0.16693686 -0.52184212 1.4523959 6697781
-0.16403028 -0.52096039 1.4499419 6433581
-0.16117015 -0.52019972 1.447825 6629675
-0.15834592 -0.51953179 1.445966 6827055
-0.1555479 -0.51892883 1.4442878 6827825
-0.15278819 -0.51843542 1.4429145 6893619
-0.15003736 -0.5179553 1.4415783 6958897
-0.14731389 -0.51755422 1.4404621 7089712
-0.14461392 -0.51722288 1.4395399 7155248
-0.14192784 -0.51692998 1.4387248 7088942
-0.13927361 -0.51674432 1.4382079 6957357
-0.13661878 -0.51654947 1.4376655 6825258
-0.13396601 -0.51635462 1.4371233 6627878
-0.13132228 -0.51618779 1.4366591 6496804
-0.12868816 -0.51605272 1.436283 6234145
-0.12605573 -0.51591909 1.4359112 6168097
-0.12342779 -0.51579833 1.4355754 6036768
-0.12081093 -0.51571995 1.4353571 5905437
-0.11820433 -0.51568288 1.4352536 5380121
-0.11559813 -0.5156458 1.4351506 5380121
-0.11299229 -0.51560885 1.4350474 5183770
-0.11040828 -0.51567185 1.4352231 5183770
-0.10782484 -0.51574075 1.4354148 5380379
-0.10525135 -0.51586193 1.4357519 5708318
-0.10268371 -0.51601845 1.4361876 5708833
-0.10011401 -0.51617253 1.4366167 5249308
-0.097556971 -0.51640189 1.4372551 4790553
-0.095001832 -0.51665413 1.4379568 4594200
-0.092445448 -0.51691365 1.4386792 4659738
-0.089893848 -0.51721567 1.4395198 4725018
-0.087345704 -0.51755631 1.4404678 4790298
-0.084794447 -0.51789886 1.4414213 4921115
-0.082245447 -0.51827735 1.4424744 5117724
-0.079692692 -0.51865619 1.4435291 5315104
-0.077141203 -0.51906925 1.4446785 5450284
-0.074593432 -0.51953727 1.445981 5650746
-0.072041489 -0.52000904 1.4472942 5850182
-0.069495142 -0.52055842 1.4488233 5587009
-0.066950694 -0.52116591 1.4505138 5915204
-0.064412706 -0.5218749 1.4524875 6047819
-0.061874732 -0.52264464 1.4546297 5983054
-0.059335545 -0.52347207 1.4569325 6378582
-0.056792475 -0.52434045 1.4593498 6444376
-0.054244258 -0.52524388 1.4618641 6444888
-0.051690087 -0.52617937 1.4644678 6312789
-0.049136952 -0.5272271 1.4673836 6182487
-0.046581298 -0.52836597 1.4705534 6182487
-0.04401768 -0.52954698 1.4738405 6115152
-0.041451924 -0.53085297 1.4774754 5653574
-0.038918443 -0.53278112 1.4828417 5258302
-0.036393221 -0.53511649 1.4893413 5061181
-0.033843674 -0.53743893 1.4958053 4862774
-0.031389542 -0.5418123 1.5079775 4468529
-0.19641659 -0.53506595 1.4967411 6770748
-0.19230562 -0.53119397 1.4859099 4933960
-0.18871514 -0.52867025 1.4788502 4668991
-0.18533473 -0.52667069 1.4732571 5322296
-0.18212683 -0.52511036 1.4688923 5714998
-0.1790309 -0.52383119 1.4653141 5523780
-0.17602438 -0.52277923 1.4623716 5457731
-0.17304875 -0.5217883 1.4595996 6044988
-0.17009656 -0.52083844 1.4569426 6371385
-0.16715866 -0.51990306 1.4543259 6768969
-0.16425641 -0.51905042 1.4519408 6636869
-0.16137628 -0.51824099 1.4496766 6501429
-0.15854931 -0.51757854 1.4478234 6761517
-0.15574612 -0.51697254 1.4461284 6762032
-0.15298353 -0.51648307 1.4447591 6893619
-0.15022978 -0.51600689 1.4434271 6893362
-0.14749222 -0.51557028 1.4422057 7023663
-0.144789 -0.51524031 1.4412827 7154992
-0.14210398 -0.5149641 1.4405103 7023918
-0.13943785 -0.51474732 1.439904 7088427
-0.13678297 -0.51456463 1.4393928 7022121
-0.13412966 -0.51438099 1.438879 6759206
-0.1314773 -0.51419353 1.4383548 6627620
-0.12884097 -0.51406276 1.4379888 6365217
-0.12620857 -0.5139423 1.4376519 6168353
-0.12357741 -0.51382202 1.4373155 5905439
-0.1209507 -0.51371562 1.4370177 5905440
-0.11834108 -0.51367855 1.4369142 5576732
-0.11573183 -0.51364166 1.4368106 5380122
-0.11311985 -0.5135904 1.4366674 5249562
-0.11053284 -0.51365304 1.4368424 5118489
-0.10794634 -0.51372087 1.4370323 5315099
-0.10537118 -0.51384753 1.4373865 5643551
-0.10280015 -0.51400101 1.4378163 5709090
-0.10022731 -0.51415336 1.4382423 5380640
-0.097665228 -0.51437062 1.4388499 4921628
-0.095107302 -0.51462203 1.4395534 4528664
-0.092548966 -0.51488554 1.4402903 4659480
-0.08999455 -0.51518655 1.4411325 4724248
-0.087442219 -0.51551795 1.4420595 4790041
-0.084888786 -0.51586306 1.4430249 4986394
-0.082337014 -0.51624042 1.4440805 4986907
-0.07978148 -0.51661831 1.4451375 5184543
-0.077226646 -0.51702625 1.4462787 5318954
-0.074675508 -0.51748866 1.4475721 5519930
-0.072121508 -0.51796401 1.4489018 5850184
-0.069571204 -0.51850301 1.4504092 5587011
-0.067024268 -0.51911008 1.4521079 5982284
-0.064482942 -0.51981199 1.4540712 6049104
-0.061941773 -0.52057511 1.4562058 6050131
-0.059399776 -0.52139878 1.4585098 6445659
-0.05685354 -0.52225995 1.4609189 6577246
-0.054302678 -0.52316076 1.4634386 6643295
-0.051745862 -0.52409351 1.4660479 6379610
-0.049188659 -0.52512294 1.4689276 6116180
-0.04663042 -0.52625853 1.4721041 6114895
-0.044063695 -0.52742994 1.4753811 5915718
-0.04149536 -0.52873224 1.4790237 5586496
-0.038958568 -0.53064364 1.4843707 5258046
-0.036430296 -0.53296298 1.4908583 5060923
-0.033880323 -0.53531045 1.4974248 4928309
-0.031418603 -0.53958178 1.5093732 4468272
-0.19687514 -0.53359962 1.5002356 6770492
-0.1926222 -0.52937442 1.4883561 5066574
-0.18900661 -0.5268057 1.4811342 4473410
-0.18561845 -0.5248062 1.4755124 4799036
-0.18239009 -0.52320671 1.4710155 5324095
-0.1792852 -0.52191925 1.4673955 5065283
-0.1762739 -0.52086967 1.4644446 4868163
-0.17328051 -0.51984167 1.4615545 5849921
-0.17032586 -0.51889986 1.4589065 6371643
-0.16738191 -0.5179615 1.4562682 6705490
-0.16448317 -0.51713526 1.4539454 6904666
-0.16159493 -0.51631564 1.451641 6374981
-0.15875936 -0.51564014 1.4497414 6500401
-0.1559522 -0.51503551 1.4480417 6762031
-0.15317832 -0.51452225 1.4465985 6828083
-0.15042575 -0.51406384 1.4453099 6762546
-0.14768586 -0.51363325 1.4440994 6761775
-0.14497079 -0.51327515 1.4430925 7025204
-0.14228216 -0.51299918 1.4423165 7025204
-0.13960189 -0.51274359 1.4415977 6959410
-0.13694382 -0.51256132 1.4410856 6761518
-0.13428764 -0.51237929 1.4405738 6825257
-0.13163656 -0.51220977 1.4400972 6627877
-0.12899694 -0.51207888 1.4397292 6365218
-0.12636179 -0.51196086 1.4393971 6168353
-0.12372738 -0.51184088 1.43906 5971231
-0.12109422 -0.51172096 1.4387228 5839646
-0.11847814 -0.51166958 1.4385784 5510940
-0.11586296 -0.51161987 1.4384385 5445661
-0.11324889 -0.51157284 1.4383062 5249307
-0.11065894 -0.51163518 1.4384816 5052441
-0.10806838 -0.51169747 1.4386568 5249307
-0.10549077 -0.51182598 1.4390179 5708576
-0.10291658 -0.51197767 1.4394447 5839906
-0.10034084 -0.5121296 1.4398717 5511712
-0.097773738 -0.5123347 1.4404483 4986651
-0.095213018 -0.51258558 1.4411534 4659480
-0.092652723 -0.51285273 1.4419048 4725018
-0.090095505 -0.51315308 1.442749 4659226
-0.087538958 -0.51347524 1.443655 4921370
-0.084983326 -0.51382279 1.4446321 4921369
-0.082428783 -0.51419902 1.4456898 4987162
-0.07987047 -0.51457578 1.4467492 5118749
-0.077311628 -0.51497459 1.4478703 5253160
-0.074757762 -0.51543564 1.4491665 5519674
-0.072201684 -0.51591438 1.4505129 5717570
-0.069647446 -0.51644301 1.4519988 5719111
-0.067098111 -0.51705074 1.4537076 5983825
-0.064553075 -0.51774251 1.4556526 6181974
-0.062008753 -0.51849943 1.4577806 6314330
-0.059464008 -0.51931965 1.4600868 6445917
-0.056914739 -0.52017498 1.4624918 6510939
-0.054361239 -0.52107322 1.4650168 6444119
-0.051801763 -0.52200317 1.4676316 6312018
-0.04924047 -0.52301443 1.470475 6114382
-0.046679657 -0.52414674 1.4736583 6113611
-0.044109806 -0.52530867 1.4769251 5981254
-0.041538883 -0.52660692 1.4805751 5586496
-0.038998775 -0.52850181 1.4859025 5258045
-0.036467433 -0.53080493 1.4923782 5060409
-0.033916838 -0.53317404 1.4990389 4928052
-0.031447709 -0.53734714 1.5107718 4467758
-0.19733591 -0.53212661 1.5037466 6704955
-0.19293942 -0.52754766 1.4908071 4934731
-0.18930458 -0.5249511 1.4834692 4408902
-0.18590647 -0.52294558 1.4778019 4341054
-0.18265408 -0.52129769 1.4731447 4798522
-0.17954022 -0.52000183 1.469483 4540224
-0.17652415 -0.51895458 1.4665236 5130050
-0.17350873 -0.51787734 1.4634793 5718078
-0.1705498 -0.51693785 1.4608245 6306106
-0.16760121 -0.51600063 1.4581761 6705491
-0.16469437 -0.51516414 1.4558121 7102562
-0.16180572 -0.5143581 1.4535344 6574417
-0.15896279 -0.51367331 1.4515992 6699321
-0.1561548 -0.51308012 1.449923 6828081
-0.15338007 -0.51257795 1.4485039 6893875
-0.15062535 -0.51212633 1.4472275 6894389
-0.14788556 -0.51171041 1.4460522 6762803
-0.1451553 -0.51131302 1.444929 6896701
-0.14246173 -0.51103264 1.4441366 7161930
-0.13977082 -0.51075149 1.4433422 7031372
-0.13711007 -0.5105719 1.442835 6964551
-0.13445386 -0.51040274 1.4423568 6764602
-0.13179943 -0.51023358 1.4418788 6433067
-0.12915096 -0.51008123 1.4414481 6365475
-0.12651296 -0.5099647 1.441119 6299425
-0.12387615 -0.50984836 1.4407902 6036510
-0.12124048 -0.50973177 1.4404607 5970975
-0.11861285 -0.50964457 1.4402142 5445915
-0.11599379 -0.50959086 1.4400628 5314075
-0.1133782 -0.50955051 1.4399486 5051929
-0.11078532 -0.50961274 1.4401243 4855832
-0.10819186 -0.50967509 1.4403007 4921113
-0.10561035 -0.50979841 1.4406488 5511454
-0.10303327 -0.50994974 1.4410768 5643040
-0.1004547 -0.51010144 1.4415054 5446688
-0.097885057 -0.51030773 1.4420884 5052700
-0.095318966 -0.51054436 1.4427569 4790296
-0.092756696 -0.51081538 1.4435232 4658969
-0.090196669 -0.51111495 1.4443692 4790042
-0.087635912 -0.51142776 1.4452537 5117468
-0.08507809 -0.51177788 1.4462428 4986651
-0.082520746 -0.51215297 1.4473028 4986651
-0.079959266 -0.51252615 1.4483576 5249565
-0.07739681 -0.51291823 1.4494654 5318697
