# .PCD v0.7 - Point Cloud Data file format
VERSION 0.7
FIELDS x y z rgba
SIZE 4 4 4 4
TYPE F F F U
COUNT 1 1 1 1
WIDTH 1136
HEIGHT 1
VIEWPOINT 0 0 0 1 0 0 0
POINTS 1136
DATA ascii
0.12900349 -0.48688364 1.5326908 14352898
0.13177773 -0.48688358 1.5326905 14025218
0.13455199 -0.48688352 1.5326902 13632002
0.037324287 -0.48244971 1.527436 16712708
0.040089026 -0.48244947 1.5274355 16712708
0.042853765 -0.48244929 1.5274351 16712708
0.045618504 -0.48244917 1.5274343 16712708
0.048383243 -0.482449 1.5274339 16712708
0.051147975 -0.48244876 1.5274332 16712708
0.053912714 -0.48244864 1.5274328 16712708
0.056677438 -0.48244846 1.5274322 16712708
0.059442163 -0.48244834 1.5274316 16712708
0.062206887 -0.48244816 1.5274311 16712708
0.064971618 -0.48244804 1.5274307 16712708
0.067736328 -0.48244774 1.5274301 16712708
0.070501052 -0.48244762 1.5274296 16712708
0.073265769 -0.48244745 1.5274289 16712708
0.076030485 -0.48244733 1.5274285 16712708
0.078795202 -0.48244703 1.5274279 16712708
0.081559904 -0.48244691 1.5274273 16712708
0.084324628 -0.48244673 1.5274267 16712708
0.08708933 -0.48244655 1.5274264 16712708
0.089854039 -0.48244643 1.5274258 16712708
0.092618734 -0.48244637 1.5274253 16712708
0.095383435 -0.48244607 1.5274246 16712708
0.09814813 -0.4824459 1.5274241 16712708
0.10091284 -0.48244566 1.5274235 16712708
0.10367753 -0.4824456 1.5274231 16712451
0.10644223 -0.48244536 1.5274224 16712451
0.10920694 -0.4824453 1.5274222 16712451
0.11197167 -0.48244518 1.527422 16712451
0.11473636 -0.48244506 1.5274217 16712451
0.11750107 -0.48244506 1.5274215 16450307
0.12026579 -0.48244506 1.5274212 16122627
0.12303049 -0.482445 1.5274211 15794947
0.1257952 -0.48244488 1.5274208 15401474
0.1285599 -0.48244482 1.5274205 15073794
0.13132462 -0.48244476 1.5274203 14746114
0.13408932 -0.48244458 1.5274199 14352898
0.037196405 -0.47804135 1.5222025 16712708
0.039951675 -0.47804117 1.522202 16712708
0.042706937 -0.47804105 1.5222015 16712708
0.045462206 -0.47804087 1.5222011 16712708
0.048217461 -0.47804064 1.5222005 16712708
0.05097273 -0.47804058 1.5222 16712708
0.053727992 -0.47804034 1.5221994 16712708
0.056483246 -0.47804022 1.5221989 16712708
0.059238508 -0.4780401 1.5221983 16712965
0.061993755 -0.4780398 1.5221977 16712965
0.064749002 -0.47803962 1.5221972 16712965
0.06750425 -0.47803956 1.5221968 16712965
0.070259504 -0.47803932 1.5221962 16712965
0.073014736 -0.47803915 1.5221957 16712965
0.075769983 -0.47803903 1.5221951 16712965
0.07852523 -0.47803885 1.5221945 16712965
0.081280455 -0.47803873 1.5221941 16712965
0.08403571 -0.47803855 1.5221934 16712965
0.086790942 -0.47803843 1.522193 16712708
0.089546181 -0.47803819 1.5221925 16712708
0.092301406 -0.47803813 1.522192 16712708
0.095056646 -0.47803789 1.5221914 16712708
0.097811855 -0.47803771 1.5221908 16712708
0.10056709 -0.47803748 1.5221903 16712708
0.1033223 -0.47803742 1.5221897 16712708
0.10607752 -0.47803712 1.5221891 16712708
0.10883275 -0.47803694 1.5221887 16712708
0.11158796 -0.47803682 1.5221879 16712451
0.11434319 -0.47803664 1.5221875 16712451
0.11709841 -0.47803658 1.5221872 16712451
0.11985367 -0.47803646 1.522187 16646915
0.12260889 -0.47803646 1.5221868 16319235
0.12536412 -0.47803628 1.5221866 15991555
0.12811935 -0.47803628 1.5221863 15663875
0.13087457 -0.47803617 1.522186 15336195
0.13362981 -0.47803622 1.522186 15008258
0.037069395 -0.47366327 1.517005 16712708
0.039815255 -0.47366291 1.5170043 16712708
0.042561106 -0.47366279 1.5170038 16712708
0.045306973 -0.47366267 1.5170033 16712708
0.048052825 -0.47366261 1.5170028 16712708
0.050798684 -0.47366238 1.5170023 16712708
0.053544529 -0.47366208 1.5170017 16712708
0.056290381 -0.47366202 1.5170013 16712965
0.059036225 -0.47366184 1.5170006 16712965
0.061782062 -0.47366166 1.517 16712965
0.064527921 -0.47366154 1.5169995 16712965
0.067273743 -0.47366136 1.516999 16712965
0.070019603 -0.47366118 1.5169985 16712965
0.072765432 -0.47366095 1.5169981 16712965
0.075511262 -0.47366089 1.5169976 16712965
0.078257099 -0.47366065 1.516997 16712965
0.081002928 -0.47366053 1.5169964 16712965
0.083748758 -0.47366035 1.5169959 16712965
0.08649458 -0.47366017 1.5169953 16712965
0.089240409 -0.47365993 1.5169947 16712965
0.091986239 -0.47365987 1.5169945 16712965
0.094732061 -0.47365963 1.5169938 16712708
0.097477891 -0.47365957 1.5169933 16712708
0.10022369 -0.4736594 1.5169928 16712708
0.10296952 -0.47365928 1.5169923 16712708
0.10571532 -0.47365904 1.5169916 16712708
0.10846114 -0.47365886 1.5169909 16712708
0.11120696 -0.47365862 1.5169905 16712708
0.11395275 -0.4736585 1.5169899 16712708
0.11669857 -0.47365838 1.5169895 16712451
0.11944436 -0.47365814 1.516989 16712451
0.12219017 -0.47365803 1.5169885 16712451
0.12493601 -0.47365797 1.5169882 16450307
0.12768181 -0.47365773 1.5169878 16122627
0.13042766 -0.47365791 1.5169878 15794947
0.13317347 -0.47365779 1.5169876 15270659
0.13591929 -0.47365773 1.5169872 14953501
0.036943257 -0.46931481 1.5118427 16450564
0.039679766 -0.46931463 1.5118421 16712708
0.042416275 -0.46931446 1.5118414 16712708
0.045152798 -0.46931434 1.5118411 16712708
0.047889307 -0.46931416 1.5118406 16712708
0.050625816 -0.46931386 1.5118401 16712708
0.053362325 -0.4693138 1.5118394 16712708
0.056098826 -0.46931362 1.511839 16712965
0.058835328 -0.46931356 1.5118384 16712965
0.061571829 -0.46931338 1.511838 16712965
0.06430833 -0.4693132 1.5118375 16712965
0.067044824 -0.46931303 1.5118369 16712965
0.069781318 -0.46931291 1.5118363 16712965
0.07251782 -0.46931273 1.5118358 16712965
0.075254314 -0.46931261 1.5118353 16712965
0.077990808 -0.46931231 1.5118346 16712965
0.080727287 -0.46931219 1.5118344 16712965
0.083463773 -0.46931207 1.5118337 16712965
0.086200245 -0.46931183 1.5118332 16712965
0.088936731 -0.46931171 1.5118326 16712965
0.091673218 -0.46931154 1.511832 16712965
0.094409704 -0.46931136 1.5118315 16712965
0.097146183 -0.4693113 1.5118312 16712965
0.099882655 -0.46931112 1.5118306 16712708
0.10261912 -0.46931082 1.51183 16712708
0.10535559 -0.46931076 1.5118295 16712708
0.10809206 -0.46931052 1.5118289 16712708
0.11082853 -0.46931034 1.5118284 16712708
0.11356501 -0.46931028 1.5118279 16712708
0.11630144 -0.46930999 1.5118272 16712708
0.11903792 -0.46930987 1.5118268 16712708
0.12177438 -0.46930987 1.5118263 16712451
0.12451083 -0.46930963 1.5118259 16712451
0.12724726 -0.46930945 1.5118251 16515843
0.12998374 -0.46930921 1.5118248 16188163
0.13272022 -0.46930921 1.5118246 15926019
0.13545668 -0.46930909 1.5118241 15477790
0.03681796 -0.46499598 1.5067155 16122884
0.039545193 -0.46499574 1.5067148 16450564
0.042272426 -0.46499562 1.5067143 16712708
0.044999667 -0.4649955 1.5067139 16712708
0.047726899 -0.46499527 1.5067134 16712708
0.050454125 -0.46499503 1.5067127 16712708
0.05318135 -0.46499497 1.5067124 16712708
0.055908568 -0.46499485 1.5067117 16712965
0.058635801 -0.46499455 1.5067112 16712965
0.061363012 -0.46499443 1.5067106 16712965
0.064090237 -0.46499431 1.5067103 16712965
0.066817448 -0.46499413 1.5067096 16712965
0.069544658 -0.46499407 1.5067091 16712965
0.072271869 -0.46499383 1.5067085 16712965
0.074999087 -0.46499372 1.5067081 16712965
0.077726305 -0.46499348 1.5067075 16712965
0.080453508 -0.46499342 1.506707 16712965
0.083180711 -0.46499312 1.5067065 16712965
0.085907914 -0.46499306 1.506706 16712965
0.088635117 -0.46499282 1.5067053 16712965
0.091362312 -0.46499264 1.5067047 16712965
0.094089508 -0.46499246 1.5067043 16712965
0.096816711 -0.46499234 1.5067039 16712965
0.099543899 -0.46499223 1.5067034 16712965
0.10227109 -0.46499199 1.5067027 16712965
0.10499828 -0.46499187 1.5067023 16712708
0.10772547 -0.46499169 1.5067017 16712708
0.11045267 -0.46499163 1.5067012 16712708
0.11317986 -0.46499145 1.5067006 16712708
0.11590704 -0.46499127 1.5067003 16712708
0.11863422 -0.46499097 1.5066996 16712708
0.1213614 -0.46499097 1.5066991 16712708
0.12408858 -0.46499085 1.5066986 16712708
0.12681572 -0.46499068 1.5066981 16712451
0.12954292 -0.46499044 1.5066977 16515843
0.13227008 -0.46499026 1.5066969 16253699
0.13499726 -0.46499008 1.5066965 15805726
0.036810912 -0.46218014 1.506427 15795204
0.039537527 -0.46217895 1.5064228 16057348
0.042264134 -0.46217763 1.5064185 16319492
0.044990718 -0.46217626 1.5064143 16581636
0.047717296 -0.46217501 1.5064101 16712708
0.050443843 -0.46217364 1.5064058 16712708
0.05317039 -0.46217233 1.5064017 16712708
0.055896908 -0.46217108 1.5063975 16712708
0.058623426 -0.46216989 1.5063932 16712965
0.061349913 -0.46216857 1.5063889 16712965
0.064076386 -0.46216726 1.5063848 16712965
0.066802852 -0.46216595 1.5063806 16712965
0.06952931 -0.46216458 1.5063764 16712965
0.072255738 -0.46216339 1.5063723 16712965
0.074982159 -0.46216208 1.506368 16712965
0.07770858 -0.46216083 1.5063639 16712965
0.080434941 -0.46215945 1.5063596 16712965
0.083161332 -0.46215814 1.5063553 16712965
0.085887685 -0.46215695 1.506351 16712965
0.088614032 -0.46215558 1.5063469 16712965
0.091340356 -0.46215439 1.5063428 16712965
0.094066665 -0.46215296 1.5063384 16712965
0.096792974 -0.46215177 1.5063343 16712965
0.099519238 -0.46215045 1.50633 16712965
0.10224552 -0.4621492 1.5063258 16712965
0.10497175 -0.46214789 1.5063215 16712965
0.107698 -0.46214658 1.5063174 16712708
0.11042421 -0.46214527 1.5063132 16712708
0.11315044 -0.46214402 1.506309 16712708
0.11587661 -0.46214271 1.5063047 16712708
0.11860279 -0.46214145 1.5063004 16712708
0.12132896 -0.46214014 1.5062964 16712708
0.12405508 -0.46213877 1.5062921 16712708
0.12678121 -0.46213758 1.5062879 16712708
0.12950733 -0.46213621 1.5062838 16515843
0.13223343 -0.46213502 1.5062796 16253699
0.1349595 -0.46213371 1.5062752 15991555
0.036855564 -0.46001077 1.5082542 15598596
0.039585479 -0.46000934 1.5082498 15729668
0.042315386 -0.46000808 1.5082457 15926276
0.045045286 -0.46000683 1.5082414 16188420
0.047775172 -0.46000552 1.5082371 16450564
0.050505027 -0.46000421 1.508233 16712708
0.053234875 -0.46000296 1.5082288 16712708
0.055964701 -0.46000171 1.5082245 16712708
0.058694519 -0.4600004 1.5082202 16712708
0.061424322 -0.45999902 1.5082159 16712965
0.064154118 -0.45999783 1.5082119 16712965
0.066883869 -0.45999652 1.5082076 16712965
0.069613636 -0.45999521 1.5082034 16712965
0.072343379 -0.45999402 1.5081993 16712965
0.075073093 -0.45999271 1.5081949 16712965
0.077802815 -0.4599914 1.5081909 16712965
0.080532506 -0.45999014 1.5081866 16712965
0.08326219 -0.45998889 1.5081823 16712965
0.085991852 -0.45998752 1.508178 16712965
0.088721514 -0.45998621 1.5081739 16712965
0.091451131 -0.45998496 1.5081695 16712965
0.094180748 -0.45998371 1.5081654 16712965
0.09691035 -0.4599824 1.5081613 16712965
0.09963993 -0.45998108 1.5081568 16712965
0.10236952 -0.45997977 1.5081527 16712965
0.10509907 -0.45997858 1.5081486 16712965
0.10782862 -0.45997727 1.5081444 16712708
0.11055813 -0.45997596 1.5081401 16712708
0.11328765 -0.45997477 1.5081358 16712708
0.11601714 -0.45997339 1.5081317 16712708
0.11874662 -0.45997208 1.5081273 16712708
0.12147609 -0.45997089 1.5081232 16712708
0.12420555 -0.45996952 1.508119 16712708
0.12693496 -0.45996827 1.5081148 16647172
0.12966438 -0.45996702 1.5081105 16384771
0.13239378 -0.45996571 1.5081062 16122627
0.13512318 -0.45996433 1.5081019 15674655
0.036900327 -0.45783615 1.5100861 15598596
0.039633557 -0.45783466 1.5100815 15467524
0.04236678 -0.45783335 1.5100772 15598596
0.045099981 -0.4578321 1.5100729 15795204
0.047833182 -0.45783085 1.5100687 16057348
0.05056636 -0.45782954 1.5100645 16319492
0.053299524 -0.45782822 1.5100601 16581636
0.056032665 -0.45782703 1.510056 16712708
0.058765791 -0.45782566 1.5100517 16712708
0.06149891 -0.45782441 1.5100474 16712708
0.064232022 -0.45782322 1.5100434 16712965
0.066965088 -0.45782179 1.5100389 16712965
0.069698162 -0.45782059 1.5100348 16712965
0.072431222 -0.45781934 1.5100307 16712965
0.075164258 -0.45781797 1.5100263 16712965
0.077897288 -0.45781678 1.5100222 16712965
0.080630302 -0.45781547 1.5100181 16712965
0.083363302 -0.45781422 1.5100137 16712965
0.086096272 -0.45781291 1.5100094 16712965
0.088829227 -0.45781159 1.5100051 16712965
0.091562182 -0.45781022 1.5100009 16712965
0.094295122 -0.45780903 1.5099968 16712965
0.097028024 -0.45780772 1.5099926 16712965
0.099760935 -0.45780647 1.5099883 16712965
0.10249383 -0.45780516 1.5099841 16712965
0.10522667 -0.45780385 1.5099796 16712965
0.10795955 -0.45780259 1.5099754 16712708
0.11069239 -0.45780134 1.5099714 16712708
0.11342522 -0.45779997 1.5099671 16712708
0.11615802 -0.45779872 1.5099629 16712708
0.11889083 -0.45779759 1.5099587 16712708
0.1216236 -0.4577961 1.5099543 16712708
0.12435635 -0.4577949 1.5099502 16712708
0.1270891 -0.45779365 1.5099459 16516100
0.12982184 -0.4577924 1.5099417 16188163
0.13255455 -0.45779109 1.5099375 15926019
0.13528724 -0.45778966 1.509933 15543584
0.036945194 -0.45565605 1.511922 15401988
0.03968174 -0.4556548 1.5119176 15270916
0.042418294 -0.45565337 1.5119133 15336452
0.045154817 -0.45565218 1.511909 15401988
0.047891341 -0.45565087 1.5119047 15598596
0.050627843 -0.45564955 1.5119004 15860740
0.053364329 -0.4556483 1.5118964 16122884
0.056100793 -0.45564705 1.511892 16450564
0.05883725 -0.45564574 1.5118878 16712708
0.061573677 -0.45564443 1.5118834 16712708
0.064310111 -0.45564324 1.5118792 16712708
0.067046516 -0.45564193 1.511875 16712965
0.069782905 -0.45564061 1.5118706 16712965
0.072519287 -0.4556393 1.5118666 16712965
0.075255647 -0.45563817 1.5118623 16712965
0.077992 -0.45563674 1.511858 16712965
0.080728315 -0.45563549 1.5118537 16712965
0.083464652 -0.45563436 1.5118496 16712965
0.086200938 -0.45563293 1.5118451 16712965
0.08893723 -0.45563167 1.5118411 16712965
0.091673516 -0.45563048 1.511837 16712965
0.094409756 -0.45562911 1.5118326 16712965
0.097145982 -0.45562774 1.5118282 16712965
0.099882215 -0.45562655 1.511824 16712965
0.10261843 -0.45562524 1.5118198 16712965
0.10535461 -0.45562398 1.5118155 16712965
0.10809081 -0.45562279 1.5118115 16712708
0.11082696 -0.45562142 1.511807 16712708
0.1135631 -0.45562023 1.5118029 16712708
0.11629922 -0.45561892 1.5117984 16712708
0.11903536 -0.45561767 1.5117943 16712708
0.12177145 -0.4556163 1.51179 16712708
0.12450755 -0.45561504 1.5117857 16581636
0.12724361 -0.45561379 1.5117817 16319492
0.12997967 -0.45561254 1.5117774 16057091
0.13271569 -0.45561123 1.511773 15729411
0.1354517 -0.45560986 1.5117687 15412512
0.036990166 -0.45347077 1.5137626 15139844
0.03973005 -0.45346951 1.5137583 15008772
0.042469926 -0.45346814 1.5137539 15074308
0.045209788 -0.45346683 1.5137496 15139844
0.047949634 -0.45346558 1.5137453 15270916
0.050689466 -0.45346427 1.513741 15401988
0.053429283 -0.45346302 1.5137367 15664132
0.056169078 -0.45346171 1.5137323 15991812
0.058908872 -0.45346045 1.5137281 16253956
0.061648637 -0.45345908 1.5137239 16516100
0.064388402 -0.45345795 1.5137198 16712708
0.067128129 -0.45345658 1.5137153 16712708
0.069867857 -0.45345539 1.5137113 16712965
0.072607554 -0.45345414 1.5137069 16712965
0.075347245 -0.45345277 1.5137024 16712965
0.078086935 -0.45345145 1.5136983 16712965
0.080826588 -0.45345026 1.513694 16712965
0.083566248 -0.45344895 1.5136899 16712965
0.086305872 -0.4534477 1.5136855 16712965
0.089045495 -0.45344645 1.5136814 16712965
0.091785073 -0.4534452 1.5136771 16712965
0.094524682 -0.45344388 1.5136728 16712965
0.097264238 -0.45344257 1.5136685 16712965
0.1000038 -0.45344138 1.5136644 16712965
0.10274334 -0.45344007 1.5136601 16712965
0.10548285 -0.45343876 1.5136558 16712965
0.10822236 -0.45343757 1.5136514 16712708
0.11096186 -0.45343626 1.5136473 16712708
0.11370134 -0.453435 1.5136431 16712708
0.1164408 -0.45343363 1.5136387 16712708
0.11918025 -0.45343232 1.5136346 16712708
0.12191967 -0.45343107 1.5136303 16712708
0.1246591 -0.45342994 1.5136261 16385028
0.12739846 -0.45342863 1.5136217 16122884
0.13013788 -0.45342737 1.5136175 15860483
0.13287723 -0.453426 1.5136131 15532803
0.1356166 -0.45342469 1.5136089 15281696
0.037035242 -0.45128006 1.5156076 14942979
0.039778478 -0.45127887 1.5156033 14681092
0.042521693 -0.45127767 1.5155989 14812164
0.045264892 -0.45127618 1.5155944 14877700
0.048008069 -0.45127487 1.5155901 14943236
0.050751247 -0.45127356 1.5155857 15008772
0.053494401 -0.45127243 1.5155816 15205380
0.056237541 -0.45127106 1.5155772 15467524
0.058980666 -0.45126981 1.515573 15729668
0.061723769 -0.45126861 1.5155687 16057348
0.064466864 -0.45126724 1.5155643 16319492
0.067209929 -0.45126599 1.5155602 16581636
0.069953002 -0.45126468 1.5155559 16712708
0.072696045 -0.45126349 1.5155518 16712965
0.075439081 -0.45126212 1.5155474 16712965
0.078182094 -0.45126092 1.5155432 16712965
0.0809251 -0.45125973 1.5155389 16712965
0.08366809 -0.4512583 1.5155345 16712965
0.086411051 -0.45125717 1.5155303 16712965
0.089154013 -0.4512558 1.5155259 16712965
0.091896936 -0.45125461 1.5155218 16712965
0.094639875 -0.45125329 1.5155176 16712965
0.097382784 -0.45125204 1.5155132 16712965
0.10012567 -0.45125073 1.5155091 16712965
0.10286855 -0.45124954 1.5155046 16712965
0.10561141 -0.45124829 1.5155004 16712965
0.10835426 -0.45124704 1.5154963 16712708
0.11109709 -0.45124567 1.515492 16712708
0.1138399 -0.45124441 1.5154877 16712708
0.11658271 -0.45124322 1.5154836 16712708
0.11932548 -0.45124191 1.5154791 16712708
0.12206825 -0.4512406 1.5154748 16450564
0.12481102 -0.45123941 1.5154707 16188420
0.12755375 -0.45123798 1.5154663 15926276
0.13029647 -0.45123684 1.5154622 15598339
0.13303915 -0.45123553 1.5154579 15336195
0.13578185 -0.45123428 1.5154535 15226940
0.037080444 -0.44908422 1.5174572 14680835
0.039827019 -0.44908291 1.517453 14418691
0.042573594 -0.4490816 1.5174484 14484484
0.045320131 -0.44908023 1.5174441 14550020
0.048066668 -0.4490791 1.5174397 14681092
0.050813183 -0.44907773 1.5174353 14746628
0.053559676 -0.44907641 1.517431 14812164
0.056306168 -0.4490751 1.5174267 14943236
0.059052631 -0.44907397 1.5174224 15205380
0.061799087 -0.4490726 1.5174181 15533060
0.064545527 -0.44907135 1.5174136 15795204
0.067291953 -0.4490701 1.5174096 16057348
0.070038363 -0.44906878 1.5174053 16319492
0.072784752 -0.44906753 1.5174011 16581636
0.075531133 -0.44906628 1.5173968 16712965
0.078277498 -0.44906497 1.5173924 16712965
0.081023835 -0.44906372 1.5173881 16712965
0.083770193 -0.44906253 1.5173839 16712965
0.0865165 -0.44906121 1.5173796 16712965
0.089262798 -0.4490599 1.5173753 16712965
0.092009075 -0.44905871 1.5173712 16712965
0.094755359 -0.44905746 1.5173669 16712965
0.097501606 -0.44905621 1.5173626 16712965
0.10024784 -0.44905484 1.5173582 16712965
0.10299408 -0.44905359 1.517354 16712965
0.10574027 -0.44905239 1.5173497 16712965
0.10848647 -0.44905102 1.5173454 16712708
0.11123266 -0.44904983 1.5173411 16712708
0.11397881 -0.44904858 1.5173368 16712708
0.11672495 -0.44904733 1.5173326 16712708
0.11947108 -0.44904596 1.5173283 16450564
0.1222172 -0.4490447 1.517324 16188420
0.12496331 -0.44904357 1.5173198 15926276
0.12770939 -0.4490422 1.5173155 15663875
0.13045546 -0.44904095 1.5173113 15336195
0.13320149 -0.4490397 1.5173068 15074051
0.13594754 -0.44903845 1.5173025 15030330
0.037125744 -0.44688278 1.5193112 14025475
0.039875679 -0.44688147 1.5193069 14091011
0.042625606 -0.44688022 1.5193026 14222083
0.045375504 -0.44687897 1.5192981 14287619
0.048125394 -0.44687772 1.5192938 14353412
0.050875269 -0.44687635 1.5192893 14418948
0.053625122 -0.4468751 1.519285 14484484
0.05637496 -0.44687378 1.5192804 14550020
0.059124783 -0.44687247 1.5192761 14681092
0.061874583 -0.44687134 1.5192721 14943236
0.064624399 -0.44686997 1.5192678 15205380
0.06737417 -0.44686878 1.5192635 15467524
0.070123926 -0.44686747 1.519259 15795204
0.072873674 -0.44686621 1.5192548 16057348
0.075623408 -0.44686496 1.5192505 16319492
0.078373134 -0.44686365 1.5192463 16516100
0.081122831 -0.44686246 1.519242 16712965
0.083872534 -0.44686121 1.5192378 16712965
0.086622186 -0.44686007 1.5192335 16712965
0.089371845 -0.44685858 1.5192289 16712965
0.092121482 -0.44685745 1.5192249 16712965
0.094871126 -0.44685614 1.5192206 16712965
0.097620726 -0.44685495 1.5192163 16712965
0.10037032 -0.44685364 1.519212 16712965
0.1031199 -0.44685239 1.5192077 16712965
0.10586944 -0.44685107 1.5192033 16712708
0.10861901 -0.44684982 1.5191991 16712708
0.11136854 -0.44684863 1.5191948 16712708
0.11411805 -0.4468472 1.5191905 16647172
0.11686755 -0.44684613 1.5191863 16385028
0.11961705 -0.44684482 1.5191821 16122884
0.12236651 -0.44684356 1.5191779 15860740
0.12511596 -0.44684219 1.5191734 15598596
0.12786539 -0.44684106 1.5191691 15336195
0.13061482 -0.44683975 1.5191648 15074051
0.13336423 -0.44683844 1.5191605 14811907
0.03717117 -0.44467622 1.5211701 13697795
0.039924465 -0.44467491 1.5211658 13828867
0.042677753 -0.4446736 1.5211613 13894403
0.045431018 -0.44467241 1.5211569 13959939
0.048184268 -0.44467098 1.5211524 14025475
0.050937504 -0.44466972 1.521148 14091011
0.053690724 -0.44466847 1.5211437 14156804
0.056443922 -0.44466704 1.5211391 14222340
0.059197105 -0.44466579 1.5211347 14287876
0.061950274 -0.44466454 1.5211303 14418948
0.064703435 -0.44466323 1.521126 14681092
0.067456581 -0.44466209 1.5211219 14943236
0.070209704 -0.44466078 1.5211176 15205380
0.072962813 -0.44465959 1.5211133 15401988
0.075715914 -0.44465834 1.5211089 15664132
0.078468993 -0.44465697 1.5211046 15926276
0.081222057 -0.44465578 1.5211003 16188420
0.083975114 -0.44465452 1.521096 16385028
0.086728148 -0.44465321 1.5210917 16581893
0.089481175 -0.44465196 1.5210874 16712965
0.092234172 -0.44465077 1.5210832 16712965
0.094987169 -0.44464946 1.5210789 16712965
0.097740136 -0.44464827 1.5210747 16712965
0.10049309 -0.44464695 1.5210702 16712965
0.10324603 -0.44464564 1.521066 16712965
0.10599896 -0.44464439 1.5210617 16712708
0.10875187 -0.4446432 1.5210574 16647172
0.11150477 -0.44464201 1.5210532 16450564
0.11425766 -0.44464082 1.5210489 16253956
0.11701051 -0.44463944 1.5210446 16057348
0.11976335 -0.44463819 1.5210402 15795204
0.12251618 -0.44463688 1.5210359 15533060
0.125269 -0.44463569 1.5210316 15270916
0.12802179 -0.44463444 1.5210273 15008515
0.13077459 -0.44463325 1.521023 14746371
0.13352734 -0.44463181 1.5210187 14484227
0.037216693 -0.44246399 1.5230333 13435651
0.039973363 -0.44246274 1.5230289 13501187
0.042730018 -0.44246143 1.5230243 13566723
0.045486651 -0.44246012 1.5230198 13632259
0.048243277 -0.44245887 1.5230155 13697795
0.050999895 -0.44245756 1.5230111 13763331
0.053756483 -0.44245619 1.5230067 13828867
0.056513056 -0.44245505 1.5230023 13829124
0.059269615 -0.44245374 1.5229979 13894660
0.062026151 -0.44245249 1.5229936 13960196
0.064782687 -0.44245118 1.5229893 14091268
0.067539193 -0.44245005 1.5229849 14287876
0.070295706 -0.44244874 1.5229806 14550020
0.073052183 -0.44244742 1.5229762 14812164
0.075808644 -0.44244617 1.5229719 15074308
0.078565098 -0.44244498 1.5229676 15270916
0.081321537 -0.44244373 1.5229633 15533060
0.084077962 -0.44244248 1.522959 15729668
0.086834371 -0.44244117 1.5229547 15926276
0.089590766 -0.44243985 1.5229504 16122884
0.09234713 -0.4424386 1.5229459 16253956
0.095103487 -0.44243747 1.5229418 16319492
0.09785983 -0.44243622 1.5229374 16385028
0.10061616 -0.44243503 1.5229332 16385028
0.10337248 -0.44243366 1.5229288 16319492
0.10612877 -0.44243246 1.5229247 16253956
0.10888507 -0.44243115 1.5229203 16122884
0.11164131 -0.44243002 1.5229158 15991812
0.11439756 -0.44242865 1.5229115 15795204
0.1171538 -0.44242746 1.5229073 15598596
0.11991002 -0.4424262 1.522903 15401988
0.12266623 -0.44242489 1.5228987 15139844
0.1254224 -0.4424237 1.5228944 14877443
0.12817858 -0.44242239 1.5228901 14680835
0.13093473 -0.44242114 1.5228856 14418691
0.13369086 -0.44241983 1.5228813 14156547
0.037262335 -0.44024646 1.5249012 13107971
0.040022388 -0.44024527 1.5248966 13173507
0.042782426 -0.44024384 1.5248921 13239043
0.045542441 -0.44024271 1.5248878 13239043
0.048302449 -0.44024134 1.5248833 13304579
0.051062435 -0.44024003 1.5248787 13370115
0.053822406 -0.44023883 1.5248744 13435651
0.056582361 -0.44023752 1.5248699 13501187
0.059342295 -0.44023627 1.5248656 13501187
0.062102214 -0.4402349 1.5248611 13566723
0.064862125 -0.44023365 1.5248566 13632516
0.067622013 -0.44023246 1.5248523 13698052
0.070381895 -0.44023108 1.524848 13960196
0.073141746 -0.44023001 1.5248437 14156804
0.075901605 -0.4402287 1.5248394 14418948
0.078661434 -0.44022751 1.5248351 14615556
0.081421256 -0.4402262 1.5248308 14877700
0.084181063 -0.44022506 1.5248265 15074308
0.086940832 -0.44022369 1.524822 15270916
0.089700617 -0.44022244 1.5248177 15401988
0.092460357 -0.44022119 1.5248134 15598596
0.095220104 -0.44022 1.5248091 15664132
0.097979829 -0.44021869 1.5248048 15729668
0.10073954 -0.44021755 1.5248005 15795204
0.10349923 -0.44021618 1.5247962 15729668
0.1062589 -0.44021499 1.5247917 15729668
0.10901857 -0.44021362 1.5247874 15598596
0.11177821 -0.44021243 1.5247833 15467524
0.11453784 -0.44021124 1.5247791 15336452
0.11729746 -0.44020998 1.5247746 15139844
0.12005705 -0.44020879 1.5247703 14943236
0.12281663 -0.44020748 1.524766 14746628
0.12557621 -0.44020623 1.5247616 14484227
0.12833574 -0.44020504 1.5247574 14222083
0.13109529 -0.44020379 1.5247529 14025475
0.13385479 -0.44020236 1.5247486 13763331
0.037308089 -0.43802345 1.5267733 12714755
0.040071525 -0.43802226 1.5267689 12780291
0.042834952 -0.43802094 1.5267644 12845827
0.045598365 -0.43801975 1.5267601 12911363
0.048361748 -0.43801832 1.5267556 12976899
0.051125132 -0.43801713 1.5267513 13042435
0.053888492 -0.43801582 1.5267466 13042435
0.056651831 -0.43801451 1.5267422 13107971
0.059415162 -0.4380132 1.5267378 13173507
0.062178463 -0.43801194 1.5267332 13173507
0.064941764 -0.43801069 1.5267289 13239043
0.067705035 -0.43800944 1.5267245 13239043
0.070468307 -0.43800825 1.52672 13304579
0.073231548 -0.438007 1.526716 13501444
0.07599479 -0.43800569 1.5267115 13763588
0.078758009 -0.43800449 1.5267071 13960196
0.081521213 -0.43800312 1.5267026 14156804
0.08428441 -0.43800193 1.5266985 14353412
0.087047584 -0.43800074 1.5266942 14550020
0.089810744 -0.43799955 1.52669 14746628
0.092573874 -0.43799818 1.5266855 14877700
0.095337018 -0.43799698 1.5266812 15008772
0.098100111 -0.43799573 1.5266768 15074308
0.10086321 -0.43799448 1.5266726 15139844
0.1036263 -0.43799335 1.5266682 15139844
0.10638936 -0.43799204 1.5266638 15074308
0.1091524 -0.43799084 1.5266595 15008772
0.11191545 -0.43798953 1.5266551 14943236
0.11467846 -0.4379884 1.5266509 14812164
0.11744145 -0.43798703 1.5266464 14615556
0.12020444 -0.4379859 1.5266422 14418948
0.12296741 -0.43798459 1.5266378 14222083
0.12573038 -0.43798339 1.5266337 14025475
0.12849331 -0.43798214 1.5266294 13828867
0.13125622 -0.43798089 1.5266249 13566723
0.13401911 -0.43797958 1.5266204 13370115
0.037353955 -0.43579507 1.5286503 12387075
0.040120788 -0.43579376 1.5286459 12452611
0.042887613 -0.43579245 1.5286415 12518147
0.045654424 -0.43579125 1.5286369 12518147
0.048421212 -0.43579 1.5286325 12583683
0.051187985 -0.43578857 1.5286281 12649219
0.053954743 -0.43578744 1.5286238 12649219
0.056721479 -0.43578601 1.5286191 12714755
0.0594882 -0.43578494 1.5286149 12714755
0.062254906 -0.43578357 1.5286102 12780291
0.065021604 -0.43578231 1.5286058 12780291
0.067788273 -0.43578106 1.5286014 12780291
0.070554934 -0.43577981 1.5285969 12845827
0.073321566 -0.4357785 1.5285923 12911363
0.076088205 -0.43577725 1.5285881 13107971
0.078854822 -0.43577611 1.5285838 13304836
0.081621431 -0.4357748 1.5285795 13501444
0.08438801 -0.43577361 1.5285752 13698052
0.08715459 -0.43577236 1.5285709 13829124
0.089921154 -0.43577117 1.5285666 14025732
0.092687666 -0.43576986 1.5285621 14156804
0.095454194 -0.43576872 1.5285578 14287876
0.098220706 -0.43576747 1.5285535 14353412
0.1009872 -0.4357661 1.5285492 14418948
0.10375367 -0.43576491 1.5285448 14418948
0.10652013 -0.43576378 1.5285405 14418948
0.10928658 -0.43576241 1.5285361 14353412
0.112053 -0.43576121 1.5285317 14287876
0.11481941 -0.4357599 1.5285274 14222340
0.11758582 -0.43575889 1.5285232 14025732
0.1203522 -0.43575752 1.5285189 13894403
0.12311857 -0.43575621 1.5285144 13697795
0.12588491 -0.43575495 1.5285101 13566723
0.12865123 -0.4357537 1.5285056 13304579
0.13141754 -0.43575251 1.5285014 13107971
0.13418384 -0.43575126 1.528497 12911363
0.037399933 -0.43356109 1.5305319 12059395
0.040170178 -0.43355983 1.5305275 12059395
0.042940401 -0.43355846 1.5305228 12124931
0.045710616 -0.43355727 1.5305184 12190467
0.048480801 -0.43355602 1.530514 12190467
0.051250987 -0.43355477 1.5305096 12256003
0.05402115 -0.43355352 1.5305051 12256003
0.056791291 -0.43355215 1.5305007 12321539
0.059561417 -0.43355089 1.5304961 12321539
0.062331527 -0.4335497 1.5304918 12321539
0.065101631 -0.43354851 1.5304873 12387075
0.067871697 -0.43354714 1.5304828 12387075
0.070641771 -0.43354595 1.5304782 12387075
0.073411815 -0.43354458 1.5304737 12387075
0.076181859 -0.43354332 1.5304695 12452611
0.078951873 -0.43354225 1.5304651 12583683
0.08172188 -0.43354094 1.5304608 12780291
0.084491864 -0.43353975 1.5304565 12977156
0.087261833 -0.43353838 1.530452 13108228
0.09003181 -0.43353724 1.5304477 13304836
0.09280175 -0.43353593 1.5304434 13435908
0.095571674 -0.4335348 1.5304389 13566980
0.098341584 -0.43353349 1.5304348 13632516
0.10111149 -0.43353236 1.5304304 13698052
0.10388137 -0.43353111 1.5304259 13763588
0.10665122 -0.43352973 1.5304215 13763588
0.10942108 -0.4335286 1.5304173 13698052
0.11219091 -0.43352735 1.5304129 13632516
0.11496072 -0.4335261 1.5304086 13566980
0.11773052 -0.43352485 1.5304043 13435651
0.12050032 -0.4335236 1.5303998 13304579
0.12327009 -0.43352252 1.5303955 13173507
0.12603983 -0.43352121 1.5303912 12976899
0.12880957 -0.4335199 1.5303868 12845827
0.13157928 -0.43351889 1.5303825 12649219
0.13434899 -0.43351746 1.5303781 12452611
0.037446022 -0.43132174 1.5324183 11666179
0.040219679 -0.43132037 1.5324137 11731715
0.042993322 -0.43131918 1.5324092 11731715
0.04576695 -0.43131781 1.5324047 11797251
0.048540555 -0.43131655 1.5324001 11797251
0.051314145 -0.4313153 1.532396 11862787
0.054087728 -0.43131405 1.5323913 11862787
0.056861281 -0.43131292 1.5323868 11862787
0.059634827 -0.43131149 1.5323822 11928323
0.062408343 -0.43131024 1.5323778 11928323
0.065181859 -0.43130904 1.5323734 11928323
0.067955345 -0.43130773 1.5323689 11928323
0.070728831 -0.43130654 1.5323646 11928323
0.07350228 -0.43130517 1.5323598 11928323
0.076275736 -0.43130404 1.5323555 11928323
0.079049155 -0.43130273 1.532351 11862787
0.081822582 -0.43130153 1.5323467 12124931
0.084595978 -0.43130028 1.5323424 12256003
0.087369375 -0.43129909 1.5323381 12387075
0.090142764 -0.43129778 1.5323337 12518147
0.092916101 -0.43129659 1.5323293 12649219
0.095689446 -0.43129545 1.5323249 12780548
0.09846276 -0.43129414 1.5323205 12911620
0.10123608 -0.43129295 1.5323162 12977156
0.10400937 -0.43129176 1.5323118 12977156
0.10678264 -0.43129045 1.5323074 13042692
0.10955592 -0.43128926 1.5323033 12976899
0.11232916 -0.43128806 1.5322988 12976899
0.11510239 -0.43128681 1.5322944 12911363
0.1178756 -0.43128556 1.53229 12780291
0.12064881 -0.43128431 1.5322857 12714755
0.12342197 -0.43128306 1.5322814 12583683
0.12619513 -0.43128186 1.532277 12452611
0.1289683 -0.43128067 1.5322728 12256003
0.13174142 -0.43127942 1.5322683 12124931
0.13451453 -0.43127811 1.5322635 11928323
0.037492223 -0.42907655 1.5343089 11272963
0.040269308 -0.4290753 1.5343046 11338499
0.043046363 -0.42907423 1.5343001 11338499
0.045823418 -0.42907292 1.5342954 11404035
0.048600443 -0.42907155 1.534291 11404035
0.05137746 -0.42907035 1.5342865 11404035
0.054154456 -0.4290691 1.534282 11469571
0.056931436 -0.42906785 1.5342777 11469571
0.059708402 -0.4290666 1.5342729 11469571
0.062485345 -0.42906529 1.5342685 11469571
0.065262288 -0.4290641 1.5342641 11469571
0.068039194 -0.42906272 1.5342596 11469571
0.070816092 -0.42906159 1.534255 11469571
0.073592968 -0.42906028 1.5342505 11469571
0.076369837 -0.42905897 1.5342461 11469571
0.079146683 -0.42905778 1.5342417 11404035
0.081923537 -0.42905653 1.5342371 11404035
0.084700353 -0.42905539 1.5342329 11535107
0.087477162 -0.42905414 1.5342286 11666179
0.090253957 -0.42905295 1.534224 11797251
0.093030728 -0.42905158 1.5342197 11928323
0.095807493 -0.42905045 1.5342155 12059395
0.098584242 -0.42904925 1.534211 12124931
0.10136098 -0.429048 1.5342066 12190467
0.10413769 -0.42904675 1.5342023 12256003
0.10691438 -0.42904544 1.5341978 12256003
0.10969106 -0.42904443 1.5341935 12256003
0.11246773 -0.42904305 1.534189 12256003
0.11524438 -0.42904192 1.5341848 12190467
0.11802102 -0.42904073 1.5341806 12124931
0.12079766 -0.42903948 1.5341761 12059395
0.12357425 -0.42903823 1.5341717 11928323
0.12635082 -0.42903697 1.5341673 11862787
0.12912738 -0.42903572 1.5341629 11731715
0.13190395 -0.42903459 1.5341587 11600643
0.13468048 -0.42903328 1.5341541 11404035
0.037538551 -0.42682618 1.5362046 10945026
0.040319063 -0.42682493 1.5362 10945026
0.04309956 -0.42682362 1.5361956 10945026
0.045880035 -0.42682236 1.5361911 10945283
0.048660487 -0.42682105 1.5361866 11010819
0.051440932 -0.4268198 1.536182 11010819
0.054221362 -0.42681867 1.5361776 11010819
0.057001777 -0.42681736 1.5361731 11010819
0.05978217 -0.42681617 1.5361687 11010819
0.06256254 -0.42681497 1.536164 11010819
0.065342911 -0.42681354 1.5361595 11010819
0.068123251 -0.42681241 1.536155 11010819
0.070903584 -0.42681104 1.5361506 11010819
0.07368388 -0.42680985 1.5361462 11010819
0.076464184 -0.42680854 1.5361415 10945283
0.079244465 -0.42680734 1.5361371 10945283
0.082024738 -0.42680615 1.5361326 10879747
0.084804982 -0.42680484 1.536128 10879747
0.087585226 -0.42680365 1.5361238 11010819
0.090365447 -0.42680246 1.5361193 11141891
0.093145654 -0.4268012 1.5361149 11207427
0.095925853 -0.42680001 1.5361106 11338499
0.098706022 -0.42679882 1.5361062 11404035
0.10148619 -0.42679757 1.5361018 11469571
0.10426632 -0.42679632 1.5360974 11535107
0.10704645 -0.42679518 1.536093 11535107
0.10982657 -0.42679381 1.5360887 11535107
0.11260667 -0.42679268 1.5360843 11535107
0.11538675 -0.42679143 1.5360799 11535107
0.11816681 -0.4267903 1.5360756 11469571
0.12094686 -0.42678899 1.5360711 11404035
0.12372688 -0.42678779 1.5360668 11338499
0.12650689 -0.42678666 1.5360624 11207427
0.1292869 -0.42678541 1.5360579 10945026
0.13206689 -0.42678416 1.5360537 10748418
0.13484685 -0.42678297 1.5360491 10748418
0.037584983 -0.42457002 1.5381048 10551810
0.04036893 -0.42456871 1.5381002 10551810
0.043152869 -0.42456758 1.5380957 10551810
0.045936778 -0.42456621 1.5380912 10551810
0.048720673 -0.42456508 1.5380869 10551810
0.051504567 -0.42456383 1.5380822 10551810
0.054288425 -0.42456263 1.5380778 10617346
0.057072282 -0.4245612 1.5380732 10552067
0.059856117 -0.42456001 1.5380687 10552067
0.062639922 -0.4245587 1.538064 10552067
0.065423734 -0.42455751 1.5380596 10552067
0.068207502 -0.42455637 1.5380552 10552067
0.070991278 -0.42455512 1.5380507 10552067
0.073775031 -0.42455381 1.5380461 10486531
0.076558776 -0.42455256 1.5380416 10486531
0.079342477 -0.42455137 1.5380371 10420995
0.082126185 -0.42455012 1.5380325 10420995
0.084909879 -0.42454886 1.538028 10355459
0.087693542 -0.42454755 1.5380237 10289923
0.090477221 -0.42454642 1.5380193 10420995
0.093260854 -0.42454517 1.5380149 10486531
0.096044496 -0.42454392 1.5380105 10617603
0.098828092 -0.42454278 1.5380061 10683139
0.1016117 -0.42454165 1.5380018 10748675
0.10439528 -0.42454034 1.5379974 10748675
0.10717885 -0.42453915 1.537993 10814211
0.1099624 -0.42453784 1.5379884 10814211
0.11274595 -0.42453665 1.5379841 10814211
0.11552946 -0.42453551 1.5379796 10814211
0.11831295 -0.42453426 1.5379753 10748675
0.12109644 -0.42453301 1.537971 10748675
0.12387992 -0.42453188 1.5379667 10683139
0.12666336 -0.42453068 1.5379622 10617346
0.1294468 -0.42452943 1.5379579 10486274
0.13223021 -0.42452824 1.5379534 10355202
0.13501361 -0.42452699 1.5379488 10355202
0.037631534 -0.42230833 1.5400096 10158594
0.040418923 -0.42230707 1.540005 10158594
0.043206312 -0.42230576 1.5400004 10158594
0.045993678 -0.42230463 1.5399964 10158594
0.048781015 -0.42230338 1.5399917 10158594
0.051568352 -0.42230207 1.5399873 10158594
0.054355666 -0.42230093 1.5399828 10158594
0.057142965 -0.42229962 1.5399783 10158594
0.059930243 -0.42229849 1.5399737 10158594
0.062717505 -0.42229718 1.5399692 10093058
0.06550476 -0.42229587 1.5399646 10093058
0.068291984 -0.42229462 1.5399599 10093058
0.071079209 -0.42229342 1.5399555 10027522
0.07386639 -0.42229217 1.5399508 10027522
0.076653585 -0.42229092 1.5399464 9962243
0.079440743 -0.42228967 1.5399418 9962243
0.082227908 -0.42228848 1.5399375 9896707
0.085015029 -0.42228723 1.5399327 9831171
0.087802149 -0.42228603 1.5399283 9831171
0.090589263 -0.42228484 1.5399239 9765635
0.093376353 -0.42228347 1.5399194 9831171
0.096163429 -0.42228234 1.5399151 9896707
0.09895049 -0.42228127 1.5399107 9962243
0.10173754 -0.42227983 1.5399063 10027779
0.10452456 -0.42227876 1.539902 10093315
0.10731157 -0.42227757 1.5398974 10093315
0.11009856 -0.42227626 1.5398929 10093315
0.11288556 -0.42227513 1.5398885 10158851
0.11567251 -0.42227399 1.5398843 10093315
0.11845947 -0.4222728 1.5398798 10093315
0.1212464 -0.42227149 1.5398755 10093058
0.12403331 -0.42227036 1.539871 10027522
0.12682021 -0.42226899 1.5398666 9961986
0.1296071 -0.42226791 1.5398624 9896450
0.13239396 -0.42226672 1.5398576 9830914
0.1351808 -0.42226553 1.5398533 10166548
0.037678197 -0.42004108 1.5419194 9765378
0.04046905 -0.42003971 1.5419148 9765378
0.043259881 -0.42003852 1.5419102 9765378
0.046050705 -0.42003727 1.5419058 9765378
0.048841499 -0.42003614 1.5419012 9699842
0.051632293 -0.42003489 1.5418966 9699842
0.054423064 -0.42003363 1.5418923 9699842
0.057213813 -0.42003244 1.5418878 9699842
0.060004562 -0.42003113 1.5418831 9699842
0.062795274 -0.42003 1.5418786 9634306
0.065585986 -0.42002881 1.5418742 9634306
0.068376668 -0.42002749 1.5418696 9634306
0.071167335 -0.42002624 1.5418649 9568770
0.073957987 -0.42002493 1.5418603 9568770
0.076748632 -0.4200238 1.5418558 9503234
0.079539254 -0.42002237 1.5418514 9437698
0.082329862 -0.42002124 1.5418469 9372162
0.085120447 -0.42001998 1.5418423 9372162
0.087911017 -0.42001879 1.5418377 9306626
0.09070158 -0.4200176 1.5418332 9241090
0.093492128 -0.42001635 1.5418289 9175554
0.096282668 -0.42001522 1.5418245 9241090
0.099073172 -0.4200139 1.5418198 9306626
0.10186367 -0.42001271 1.5418155 9372162
0.10465415 -0.42001158 1.5418112 9372162
0.10744462 -0.42001045 1.5418067 9437698
0.11023507 -0.42000908 1.5418023 9437698
0.11302552 -0.42000794 1.5417981 9437698
0.11581593 -0.42000675 1.5417936 9437698
0.11860634 -0.4200055 1.5417889 9437698
0.12139673 -0.42000425 1.5417846 9372162
0.12418709 -0.42000318 1.5417802 9372162
0.12697744 -0.42000192 1.5417757 9306626
0.12976779 -0.42000067 1.5417714 9306626
0.13255809 -0.41999942 1.5417669 9241090
0.13534839 -0.41999829 1.5417624 9970197
0.037724979 -0.41776806 1.5438337 9372162
0.04051929 -0.41776681 1.543829 9372162
0.043313593 -0.41776562 1.5438246 9306626
0.046107881 -0.41776443 1.54382 9306626
0.048902139 -0.41776311 1.5438155 9306626
0.051696397 -0.41776198 1.543811 9306626
0.054490626 -0.41776073 1.5438066 9241090
0.057284854 -0.41775948 1.543802 9241090
0.06007906 -0.41775817 1.5437975 9241090
0.062873237 -0.41775703 1.543793 9175554
0.065667406 -0.41775572 1.5437882 9175554
0.06846156 -0.41775447 1.5437837 9110018
0.071255691 -0.41775328 1.5437791 9110018
0.074049808 -0.41775215 1.5437746 9044482
0.076843917 -0.4177509 1.5437703 8978946
0.079638004 -0.4177497 1.5437657 8978946
0.082432076 -0.41774845 1.5437611 8913410
0.085226126 -0.41774714 1.5437566 8847874
0.088020161 -0.41774595 1.543752 8782338
0.090814181 -0.4177447 1.5437474 8716802
0.093608178 -0.41774344 1.5437429 8651266
0.096402191 -0.41774225 1.5437384 8585730
0.099196158 -0.41774112 1.5437338 8651266
0.10199013 -0.41773993 1.5437294 8716802
0.10478406 -0.41773874 1.5437251 8716802
0.107578 -0.41773754 1.5437207 8716802
0.11037191 -0.41773629 1.5437162 8782338
0.11316583 -0.41773498 1.5437118 8782338
0.1159597 -0.41773391 1.5437074 8782338
0.11875356 -0.41773272 1.543703 8782338
0.12154742 -0.41773152 1.5436985 8782338
0.12434126 -0.41773033 1.5436943 8716802
0.12713507 -0.4177292 1.5436898 8716802
0.12992886 -0.41772789 1.5436852 8651266
0.13272263 -0.4177267 1.5436807 8651266
0.13551642 -0.4177255 1.5436764 9314323
0.037771873 -0.41548949 1.545753 8978946
0.04056967 -0.41548836 1.5457484 8913410
0.043367438 -0.41548711 1.5457439 8913410
0.046165198 -0.41548586 1.5457393 8913410
0.048962936 -0.41548467 1.5457346 8913410
0.051760659 -0.41548342 1.5457301 8847874
0.054558367 -0.41548216 1.5457256 8847874
0.05735606 -0.41548091 1.5457211 8782338
0.060153738 -0.41547978 1.5457165 8782338
0.062951393 -0.41547853 1.545712 8716802
0.065749027 -0.4154774 1.5457075 8716802
0.06854666 -0.41547608 1.5457029 8651266
0.071344279 -0.41547489 1.5456983 8651266
0.074141853 -0.41547364 1.5456936 8585730
0.076939434 -0.41547233 1.5456892 8520194
0.079736985 -0.41547114 1.5456846 8454658
0.082534537 -0.41546994 1.54568 8389122
0.085332066 -0.41546863 1.5456755 8389122
0.088129573 -0.41546756 1.545671 8323586
0.090927064 -0.41546619 1.5456663 8258050
0.093724549 -0.41546506 1.5456618 8192514
0.096522011 -0.41546381 1.5456574 8126978
0.099319458 -0.41546261 1.5456529 8061442
0.10211691 -0.41546148 1.5456486 8061442
0.10491431 -0.41546017 1.5456438 8126978
0.10771171 -0.41545898 1.5456394 8126978
0.11050911 -0.41545784 1.545635 8126978
0.11330649 -0.41545659 1.5456305 8126978
0.11610382 -0.4154554 1.5456262 8126978
0.11890117 -0.41545427 1.5456219 8126978
0.12169849 -0.41545314 1.5456172 8126978
0.12449581 -0.41545182 1.5456128 8126978
0.12729308 -0.41545069 1.5456084 8126978
0.13009037 -0.4154495 1.545604 8061442
0.1328876 -0.41544825 1.5455996 8061442
0.13568486 -0.41544712 1.545595 9386016
0.037818886 -0.41320527 1.5476768 8585730
0.040620163 -0.41320407 1.5476723 8520194
0.04342141 -0.41320282 1.5476677 8520194
0.046222657 -0.41320157 1.547663 8454658
0.049023874 -0.41320038 1.5476586 8454658
0.051825084 -0.41319913 1.547654 8454658
0.054626271 -0.41319793 1.5476494 8389122
0.057427451 -0.41319674 1.5476449 8389122
0.060228609 -0.41319561 1.5476403 8323586
0.063029744 -0.41319436 1.5476357 8258050
0.065830871 -0.41319305 1.5476313 8258050
0.068631969 -0.41319185 1.5476267 8192514
0.071433067 -0.41319066 1.5476222 8126978
0.074234135 -0.41318947 1.5476176 8126978
0.077035211 -0.41318828 1.547613 8061442
0.079836234 -0.41318703 1.5476086 7995906
0.082637265 -0.41318578 1.547604 7930370
0.085438266 -0.41318464 1.5475993 7864834
0.088239275 -0.41318351 1.5475948 7799298
0.091040231 -0.4131822 1.5475901 7733762
0.093841203 -0.41318083 1.5475857 7668226
0.096642159 -0.4131797 1.5475812 7602690
0.099443071 -0.4131785 1.5475764 7537154
0.10224398 -0.41317725 1.5475719 7471618
0.10504487 -0.41317594 1.5475675 7537154
0.10784578 -0.41317493 1.5475631 7537154
0.11064664 -0.41317368 1.5475585 7537154
0.11344751 -0.4131726 1.5475543 7537154
0.11624832 -0.41317135 1.5475495 7537154
0.11904914 -0.41317004 1.5475452 7537154
0.12184995 -0.41316897 1.5475408 7537154
0.12465074 -0.41316772 1.5475364 7537154
0.12745149 -0.41316664 1.5475321 7537154
0.13025227 -0.41316545 1.5475276 7537154
0.13305297 -0.41316408 1.5475228 7471361
0.13585372 -0.41316289 1.5475183 8663837
0.037866019 -0.41091532 1.5496056 8192514
0.040670782 -0.41091406 1.5496011 8126978
0.043475531 -0.41091293 1.5495965 8126978
0.046280257 -0.41091174 1.549592 8061442
0.049084976 -0.41091055 1.5495874 8061442
0.051889665 -0.41090918 1.5495827 7995906
0.054694347 -0.41090804 1.5495782 7930370
0.057499014 -0.41090679 1.5495734 7930370
0.060303666 -0.41090566 1.549569 7864834
0.063108295 -0.41090435 1.5495646 7799298
0.065912895 -0.41090322 1.5495598 7799298
0.068717495 -0.41090202 1.5495553 7733762
0.071522087 -0.41090065 1.5495505 7668226
0.074326649 -0.41089952 1.549546 7602690
0.077131197 -0.41089845 1.5495416 7602690
0.079935715 -0.4108972 1.5495369 7537154
0.08274024 -0.41089588 1.5495324 7471618
0.085544728 -0.41089475 1.5495278 7406082
0.088349223 -0.41089338 1.5495232 7340546
0.091153689 -0.41089237 1.5495186 7275010
0.093958139 -0.410891 1.5495141 7209474
0.096762583 -0.41088986 1.5495095 7143938
0.099566974 -0.41088873 1.5495049 7078402
0.10237139 -0.41088748 1.5495003 7012866
0.10517578 -0.41088617 1.5494959 6947330
0.10798015 -0.41088498 1.5494913 6947330
0.11078451 -0.41088384 1.5494869 6947330
0.11358885 -0.41088271 1.5494823 6947330
0.11639317 -0.41088152 1.5494781 6947330
0.11919748 -0.41088039 1.5494735 6947330
0.12200177 -0.41087914 1.549469 6947073
0.12480607 -0.41087794 1.5494647 6947073
0.1276103 -0.41087669 1.5494601 6947073
0.13041455 -0.41087556 1.5494556 6947073
0.13321877 -0.41087443 1.5494511 6947073
0.13602298 -0.41087312 1.5494466 8073243
0.037913263 -0.40861964 1.5515391 7799041
0.040721528 -0.40861851 1.5515344 7733505
0.043529771 -0.4086172 1.5515299 7667969
0.046337999 -0.40861601 1.5515254 7667969
0.049146213 -0.40861481 1.5515206 7602433
0.051954411 -0.40861356 1.5515162 7602433
0.054762587 -0.40861243 1.5515115 7536897
0.057570755 -0.40861124 1.551507 7471361
0.060378902 -0.40860993 1.5515022 7406082
0.063187033 -0.40860879 1.5514977 7406082
0.065995134 -0.40860754 1.5514932 7340546
0.068803243 -0.40860635 1.5514885 7275010
0.071611322 -0.40860516 1.5514841 7209474
0.074419387 -0.40860397 1.5514796 7143938
0.077227436 -0.40860283 1.551475 7143938
0.080035456 -0.40860152 1.5514704 7078402
0.082843482 -0.40860033 1.5514657 7012866
0.08565148 -0.40859914 1.5514612 6947330
0.088459454 -0.40859789 1.5514567 6881537
0.091267429 -0.40859675 1.551452 6816001
0.094075374 -0.4085955 1.5514474 6684672
0.096883304 -0.40859437 1.5514429 6684672
0.099691205 -0.40859312 1.5514381 6684672
0.10249913 -0.40859193 1.5514337 6684672
0.10530699 -0.40859067 1.551429 6684672
0.10811488 -0.40858948 1.5514245 6684672
0.11092273 -0.40858841 1.5514202 6684672
0.11373056 -0.40858722 1.5514157 6684672
0.11653838 -0.40858597 1.5514112 6684672
0.11934619 -0.40858483 1.5514067 6684672
0.12215398 -0.40858358 1.5514021 6684672
0.12496177 -0.40858245 1.5513978 6684672
0.12776951 -0.40858132 1.5513933 6684672
0.13057725 -0.40858012 1.5513887 6684672
0.13338497 -0.40857887 1.5513842 6684672
0.037960634 -0.40631819 1.5534775 7405825
0.040772408 -0.40631711 1.553473 7340289
0.043584161 -0.4063158 1.5534683 7274753
0.04639589 -0.40631461 1.5534637 7274753
0.049207613 -0.40631348 1.5534592 7209217
0.05201932 -0.40631223 1.5534544 7143681
0.054830998 -0.40631109 1.5534499 7078145
0.057642676 -0.40630978 1.5534453 7078145
0.060454331 -0.40630871 1.5534408 7012609
0.063265972 -0.40630758 1.5534363 6947073
0.066077583 -0.40630627 1.5534315 6881537
0.068889186 -0.40630502 1.553427 6816001
0.071700789 -0.40630388 1.5534222 6750465
0.074512355 -0.40630263 1.5534177 6684672
0.077323914 -0.40630144 1.5534132 6684672
0.080135442 -0.40630019 1.5534085 6684672
0.082946964 -0.40629894 1.5534039 6684672
0.085758463 -0.4062978 1.5533993 6684672
0.088569961 -0.40629655 1.5533946 6684672
0.091381438 -0.40629536 1.5533901 6684672
0.094192892 -0.40629423 1.5533855 6684672
0.097004324 -0.40629297 1.5533808 6684672
0.099815749 -0.40629184 1.5533764 6684672
0.10262715 -0.40629053 1.5533717 6684672
0.10543855 -0.40628946 1.5533673 6684672
0.10824993 -0.40628815 1.5533625 6684672
0.11106128 -0.40628701 1.5533581 6684672
0.11387261 -0.40628588 1.5533534 6684672
0.11668395 -0.40628469 1.553349 6684672
0.11949527 -0.40628338 1.5533445 6684672
0.12230656 -0.40628231 1.5533401 6684672
0.12511784 -0.40628117 1.5533354 6684672
0.12792911 -0.40627998 1.5533311 6684672
0.13074037 -0.40627879 1.5533266 6684672
0.13355158 -0.40627754 1.553322 6684672
0.038008116 -0.40401119 1.5554209 7012609
0.040823407 -0.40400994 1.5554161 6947073
0.043638669 -0.40400869 1.5554116 6881537
0.04645393 -0.40400755 1.5554068 6816001
0.049269162 -0.40400624 1.5554023 6816001
0.052084386 -0.40400505 1.5553975 6684672
0.054899588 -0.40400398 1.555393 6684672
0.057714783 -0.40400267 1.5553885 6684672
0.060529947 -0.40400165 1.5553838 6684672
