# .PCD v0.7 - Point Cloud Data file format
VERSION 0.7
FIELDS x y z rgba
SIZE 4 4 4 4
TYPE F F F U
COUNT 1 1 1 1
WIDTH 1107
HEIGHT 1
VIEWPOINT 0 0 0 1 0 0 0
POINTS 1107
DATA ascii
-0.0041610543 -0.4896282 1.5325977 16712708
-0.0013869563 -0.4896282 1.5325977 16712708
0.0013871416 -0.4896282 1.5325975 16712708
0.0041612405 -0.4896282 1.5325977 16712708
0.0069353376 -0.48962826 1.5325978 16712708
0.0097094383 -0.48962826 1.5325978 16712451
0.012483535 -0.48962831 1.5325978 16712451
0.015257636 -0.48962826 1.5325979 16712451
0.018031741 -0.48962837 1.5325984 16712451
0.020805849 -0.48962849 1.5325987 16712451
0.02357995 -0.48962867 1.5325991 16712451
0.026354058 -0.48962879 1.5325994 16581379
0.029128162 -0.48962885 1.5325997 16253699
0.031902276 -0.48962897 1.5326002 15926019
0.03467638 -0.48962921 1.5326006 15598082
0.0374505 -0.48962921 1.5326009 15204866
0.040224604 -0.48962927 1.5326014 14877186
0.042998724 -0.48962939 1.5326016 14483970
0.045772843 -0.48962963 1.5326018 14156290
0.048546962 -0.48962963 1.5326023 13763074
0.051321082 -0.48962981 1.5326027 13575445
-0.045614764 -0.48517597 1.5273151 16712708
-0.042850226 -0.48517609 1.5273154 16712708
-0.040085688 -0.48517597 1.5273153 16712708
-0.037321154 -0.48517609 1.5273154 16712708
-0.03455662 -0.48517603 1.5273153 16712708
-0.031792082 -0.48517609 1.5273154 16712708
-0.029027544 -0.48517615 1.5273154 16712708
-0.026263008 -0.48517603 1.5273154 16712708
-0.023498468 -0.48517609 1.5273154 16712708
-0.020733934 -0.48517609 1.5273155 16712708
-0.017969396 -0.48517609 1.5273156 16712708
-0.015204861 -0.48517609 1.5273155 16712708
-0.012440324 -0.48517609 1.5273156 16712708
-0.0096757878 -0.48517609 1.5273156 16712708
-0.0069112508 -0.48517609 1.5273156 16712708
-0.0041467128 -0.48517615 1.5273156 16712708
-0.0013821758 -0.48517609 1.5273156 16712708
0.0013823602 -0.48517615 1.5273156 16712708
0.0041468982 -0.48517627 1.5273159 16712708
0.0069114361 -0.48517627 1.5273159 16712708
0.0096759759 -0.48517632 1.5273159 16712708
0.012440512 -0.48517627 1.5273159 16712708
0.015205046 -0.48517632 1.5273159 16712708
0.017969592 -0.48517627 1.527316 16712708
0.020734129 -0.48517621 1.5273161 16712451
0.023498671 -0.48517638 1.5273161 16712451
0.026263213 -0.48517644 1.5273166 16712451
0.029027762 -0.48517668 1.527317 16712451
0.031792305 -0.48517662 1.5273173 16515843
0.034556858 -0.48517686 1.5273178 16188163
0.037321404 -0.48517686 1.527318 15860483
0.040085956 -0.48517704 1.5273185 15532803
0.042850509 -0.48517716 1.527319 15204866
0.045615062 -0.48517728 1.5273191 14811650
0.048379622 -0.48517752 1.5273197 14483970
0.051144175 -0.48517746 1.5273198 14090754
-0.045458093 -0.48075461 1.5220696 16712708
-0.042703055 -0.48075461 1.5220697 16712708
-0.039948009 -0.48075455 1.5220696 16712708
-0.037192967 -0.48075455 1.5220695 16712708
-0.034437928 -0.48075467 1.5220697 16712708
-0.031682886 -0.48075461 1.5220697 16712708
-0.028927846 -0.48075461 1.5220697 16712708
-0.026172806 -0.48075467 1.5220697 16712708
-0.023417763 -0.48075467 1.5220697 16712965
-0.020662723 -0.48075479 1.5220699 16712965
-0.017907681 -0.48075473 1.5220699 16712965
-0.01515264 -0.48075473 1.5220699 16712965
-0.012397597 -0.48075473 1.5220699 16712965
-0.0096425563 -0.48075473 1.5220699 16712965
-0.0068875141 -0.48075479 1.5220701 16712965
-0.004132471 -0.48075479 1.5220702 16712965
-0.001377428 -0.48075479 1.5220701 16712965
0.0013776142 -0.48075473 1.5220699 16712708
0.0041326564 -0.48075479 1.5220702 16712708
0.0068876967 -0.48075479 1.5220702 16712708
0.0096427444 -0.48075479 1.5220702 16712708
0.012397787 -0.48075485 1.5220702 16712708
0.015152829 -0.48075491 1.5220703 16712708
0.017907871 -0.48075491 1.5220703 16712708
0.020662913 -0.48075491 1.5220702 16712708
0.023417959 -0.48075491 1.5220703 16712708
0.026173005 -0.48075479 1.5220704 16712451
0.028928047 -0.48075485 1.5220704 16712451
0.031683095 -0.48075503 1.5220709 16712451
0.034438156 -0.48075509 1.5220712 16712451
0.037193201 -0.48075527 1.5220716 16384771
0.039948262 -0.48075539 1.5220718 16057091
0.042703316 -0.48075557 1.5220723 15729411
0.045458369 -0.48075569 1.5220727 15401731
0.04821343 -0.48075563 1.522073 15074051
0.050968498 -0.48075587 1.5220735 14746114
-0.045302503 -0.47636348 1.5168598 16712708
-0.042556886 -0.47636348 1.5168598 16712708
-0.039811276 -0.47636342 1.5168598 16712708
-0.03706567 -0.47636348 1.5168599 16712708
-0.034320056 -0.47636354 1.5168599 16712708
-0.031574447 -0.47636354 1.51686 16712708
-0.028828833 -0.47636348 1.5168599 16712708
-0.02608322 -0.47636354 1.5168599 16712965
-0.023337608 -0.4763636 1.51686 16712965
-0.020591997 -0.47636354 1.5168601 16712965
-0.017846385 -0.47636354 1.51686 16712965
-0.015100773 -0.47636354 1.5168601 16712965
-0.012355164 -0.4763636 1.5168602 16712965
-0.0096095521 -0.4763636 1.5168602 16712965
-0.0068639396 -0.47636354 1.5168602 16712965
-0.0041183261 -0.4763636 1.5168602 16712965
-0.0013727136 -0.47636366 1.5168602 16712965
0.001372898 -0.47636354 1.5168602 16712965
0.0041185115 -0.4763636 1.5168604 16712965
0.0068641212 -0.47636366 1.5168604 16712965
0.0096097365 -0.47636366 1.5168605 16712965
0.01235535 -0.4763636 1.5168605 16712708
0.015100962 -0.47636366 1.5168605 16712708
0.017846579 -0.47636366 1.5168605 16712708
0.020592188 -0.47636366 1.5168605 16712708
0.023337798 -0.4763636 1.5168605 16712708
0.026083415 -0.47636372 1.5168607 16712708
0.028829033 -0.47636378 1.5168607 16712708
0.031574644 -0.47636378 1.5168606 16712708
0.03432025 -0.47636372 1.5168607 16712451
0.037065879 -0.4763639 1.5168611 16712451
0.039811507 -0.47636402 1.5168613 16515843
0.042557128 -0.47636396 1.5168617 16188163
0.045302756 -0.47636431 1.5168623 15860483
0.048048377 -0.47636431 1.5168624 15598339
0.050794005 -0.47636437 1.5168626 15270659
-0.04514797 -0.47200227 1.5116856 16712708
-0.042411722 -0.47200221 1.5116856 16712708
-0.039675474 -0.47200227 1.5116856 16712708
-0.036939234 -0.47200239 1.5116858 16712708
-0.034202985 -0.47200227 1.5116857 16712708
-0.031466741 -0.47200233 1.5116858 16712708
-0.028730493 -0.47200227 1.5116857 16712708
-0.025994249 -0.47200239 1.5116858 16712965
-0.023258002 -0.47200245 1.5116858 16712965
-0.020521756 -0.47200239 1.5116858 16712965
-0.01778551 -0.47200245 1.5116858 16712965
-0.015049264 -0.47200239 1.5116858 16712965
-0.012313018 -0.47200239 1.5116858 16712965
-0.0095767714 -0.47200245 1.511686 16712965
-0.0068405252 -0.47200239 1.5116858 16712965
-0.004104279 -0.47200239 1.511686 16712965
-0.0013680328 -0.47200251 1.5116863 16712965
0.0013682153 -0.47200245 1.5116862 16712965
0.0041044615 -0.47200251 1.5116862 16712965
0.0068407077 -0.47200257 1.5116863 16712965
0.0095769577 -0.47200251 1.5116863 16712965
0.012313204 -0.47200257 1.5116863 16712965
0.015049454 -0.47200257 1.5116863 16712965
0.0177857 -0.47200257 1.5116863 16712708
0.020521948 -0.47200263 1.5116863 16712708
0.0232582 -0.47200251 1.5116863 16712708
0.025994444 -0.47200251 1.5116863 16712708
0.028730696 -0.47200251 1.5116863 16712708
0.031466939 -0.47200257 1.5116864 16712708
0.034203187 -0.47200263 1.5116866 16712708
0.036939435 -0.47200257 1.5116866 16712708
0.039675683 -0.47200257 1.5116866 16712451
0.042411931 -0.47200269 1.5116866 16515843
0.045148201 -0.47200286 1.5116872 16253699
0.047884457 -0.47200292 1.5116875 15991555
0.050620712 -0.47200304 1.5116878 15663875
-0.047721431 -0.46767074 1.5065465 14894115
-0.044994488 -0.4676708 1.5065465 16450564
-0.042267539 -0.46767074 1.5065465 16712708
-0.039540604 -0.4676708 1.5065467 16712708
-0.036813661 -0.46767074 1.5065466 16712708
-0.034086712 -0.4676708 1.5065467 16712708
-0.031359769 -0.46767074 1.5065466 16712708
-0.028632827 -0.4676708 1.506547 16712708
-0.025905881 -0.46767086 1.506547 16712965
-0.023178937 -0.46767086 1.506547 16712965
-0.020451993 -0.46767086 1.506547 16712965
-0.017725049 -0.46767086 1.506547 16712965
-0.014998104 -0.46767086 1.506547 16712965
-0.01227116 -0.4676708 1.506547 16712965
-0.0095442152 -0.46767086 1.506547 16712965
-0.006817271 -0.46767092 1.506547 16712965
-0.0040903268 -0.46767098 1.5065471 16712965
-0.0013633808 -0.46767098 1.5065471 16712965
0.0013635643 -0.46767098 1.5065471 16712965
0.0040905084 -0.46767098 1.5065472 16712965
0.0068174526 -0.46767098 1.5065471 16712965
0.0095443986 -0.46767092 1.5065472 16712965
0.012271345 -0.46767092 1.5065472 16712965
0.014998293 -0.46767086 1.5065472 16712965
0.017725239 -0.46767098 1.5065472 16712965
0.020452185 -0.46767098 1.5065472 16712965
0.023179127 -0.46767104 1.5065472 16712708
0.025906069 -0.46767098 1.5065472 16712708
0.028633015 -0.46767104 1.5065472 16712708
0.031359963 -0.4676711 1.5065475 16712708
0.034086913 -0.46767104 1.5065475 16712708
0.036813863 -0.46767104 1.5065475 16712708
0.039540797 -0.4676711 1.5065475 16712708
0.042267747 -0.46767104 1.5065475 16712708
0.044994704 -0.4676711 1.5065477 16515843
0.047721654 -0.46767116 1.5065477 16253699
0.050448604 -0.46767116 1.5065479 15991555
-0.047665 -0.46439409 1.5047653 14895142
-0.044941157 -0.46439266 1.5047607 16057348
-0.042217314 -0.46439123 1.5047562 16319492
-0.039493497 -0.46438998 1.5047522 16581636
-0.036769692 -0.46438861 1.5047476 16712708
-0.034045912 -0.46438736 1.5047432 16712708
-0.031322137 -0.46438599 1.5047389 16712708
-0.028598383 -0.46438462 1.5047345 16712708
-0.025874641 -0.46438318 1.50473 16712708
-0.023150917 -0.46438193 1.5047257 16712965
-0.02042721 -0.4643805 1.5047212 16712965
-0.01770352 -0.46437907 1.5047169 16712965
-0.014979842 -0.4643777 1.5047126 16712965
-0.012256183 -0.46437633 1.5047081 16712965
-0.0095325373 -0.46437514 1.5047038 16712965
-0.0068089105 -0.46437371 1.5046992 16712965
-0.0040852986 -0.4643724 1.5046949 16712965
-0.0013617007 -0.46437103 1.5046906 16712965
0.0013618805 -0.46436971 1.5046861 16712965
0.0040854439 -0.46436834 1.5046816 16712965
0.0068089925 -0.46436697 1.5046774 16712965
0.0095325261 -0.4643656 1.5046729 16712965
0.012256041 -0.46436423 1.5046686 16712965
0.014979543 -0.46436292 1.5046642 16712965
0.017703028 -0.46436149 1.5046599 16712965
0.020426499 -0.46436012 1.5046554 16712965
0.02314995 -0.46435881 1.504651 16712965
0.025873387 -0.46435744 1.5046468 16712708
0.028596805 -0.46435601 1.504642 16712708
0.031320214 -0.46435481 1.504638 16712708
0.034043603 -0.46435344 1.5046334 16712708
0.036766976 -0.46435213 1.5046291 16712708
0.039490335 -0.4643507 1.5046246 16712708
0.042213678 -0.46434939 1.5046203 16712708
0.044937007 -0.46434802 1.5046159 16581636
0.047660321 -0.46434665 1.5046115 16319235
0.050383613 -0.46434534 1.5046072 16057091
-0.047722779 -0.46222997 1.5065893 14961192
-0.044995632 -0.46222866 1.5065849 15729668
-0.042268492 -0.46222723 1.5065805 15926276
-0.039541371 -0.46222591 1.5065761 16188420
-0.036814272 -0.4622246 1.5065718 16450564
-0.034087181 -0.46222323 1.5065672 16712708
-0.031360108 -0.46222186 1.5065629 16712708
-0.028633047 -0.46222049 1.5065584 16712708
-0.025906008 -0.46221918 1.5065541 16712708
-0.023178982 -0.46221781 1.5065496 16712965
-0.02045197 -0.4622165 1.5065453 16712965
-0.01772498 -0.46221524 1.506541 16712965
-0.014998001 -0.46221387 1.5065365 16712965
-0.012271039 -0.46221244 1.5065321 16712965
-0.0095440932 -0.46221107 1.5065277 16712965
-0.006817163 -0.46220976 1.5065234 16712965
-0.0040902486 -0.46220833 1.5065188 16712965
-0.0013633501 -0.46220702 1.5065144 16712965
0.0013635308 -0.46220571 1.5065101 16712965
0.0040903967 -0.4622044 1.5065057 16712965
0.0068172459 -0.46220285 1.5065012 16712965
0.0095440801 -0.46220165 1.5064969 16712965
0.012270898 -0.46220022 1.5064925 16712965
0.014997702 -0.46219885 1.5064881 16712965
0.01772449 -0.46219766 1.5064836 16712965
0.020451261 -0.46219617 1.5064793 16712965
0.023178013 -0.46219486 1.5064747 16712965
0.02590475 -0.46219361 1.5064704 16712708
0.028631473 -0.46219218 1.506466 16712708
0.031358175 -0.46219081 1.5064616 16712708
0.034084871 -0.4621895 1.5064572 16712708
0.036811545 -0.46218807 1.5064528 16712708
0.039538205 -0.46218675 1.5064485 16712708
0.042264841 -0.46218544 1.506444 16712708
0.044991478 -0.46218407 1.5064397 16516100
0.047718093 -0.46218276 1.5064353 16188163
0.050444685 -0.46218139 1.5064309 15926019
-0.045050241 -0.46005929 1.5084133 15533060
-0.042319793 -0.46005797 1.508409 15598596
-0.039589364 -0.46005666 1.5084046 15795204
-0.036858954 -0.46005529 1.5084002 16057348
-0.034128547 -0.46005392 1.5083958 16319492
-0.031398166 -0.46005255 1.5083913 16581636
-0.0286678 -0.4600513 1.5083871 16712708
-0.025937445 -0.46004993 1.5083826 16712708
-0.023207113 -0.46004862 1.5083783 16712708
-0.020476796 -0.46004713 1.5083737 16712965
-0.017746493 -0.46004587 1.5083694 16712965
-0.015016203 -0.46004456 1.5083649 16712965
-0.012285933 -0.46004319 1.5083606 16712965
-0.009555677 -0.46004182 1.5083561 16712965
-0.0068254387 -0.46004057 1.5083518 16712965
-0.0040952135 -0.46003908 1.5083473 16712965
-0.0013650069 -0.46003771 1.5083427 16712965
0.0013651829 -0.46003646 1.5083386 16712965
0.0040953588 -0.46003509 1.5083342 16712965
0.0068255179 -0.46003377 1.5083296 16712965
0.0095556639 -0.4600324 1.5083251 16712965
0.012285791 -0.46003115 1.5083208 16712965
0.015015906 -0.46002972 1.5083165 16712965
0.017746 -0.46002835 1.508312 16712965
0.020476079 -0.46002704 1.5083076 16712965
0.023206139 -0.46002561 1.508303 16712965
0.025936188 -0.46002436 1.5082988 16712708
0.028666222 -0.46002311 1.5082946 16712708
0.031396233 -0.46002167 1.5082901 16712708
0.03412623 -0.46002018 1.5082854 16712708
0.036856212 -0.46001899 1.5082811 16712708
0.039586186 -0.46001762 1.5082765 16712708
0.042316131 -0.46001625 1.5082723 16647172
0.045046084 -0.460015 1.5082679 16319492
0.047775999 -0.46001363 1.5082635 16057091
0.050505899 -0.4600122 1.5082589 15794947
-0.045104984 -0.45788473 1.5102463 15270916
-0.042371213 -0.45788336 1.510242 15336452
-0.039637469 -0.45788211 1.5102376 15467524
-0.036903746 -0.45788074 1.5102334 15598596
-0.03417002 -0.45787936 1.5102289 15860740
-0.031436324 -0.45787811 1.5102246 16122884
-0.028702635 -0.45787668 1.5102201 16450564
-0.025968965 -0.45787531 1.5102155 16712708
-0.023235315 -0.457874 1.5102111 16712708
-0.020501679 -0.45787257 1.5102067 16712708
-0.017768057 -0.45787132 1.5102024 16712965
-0.015034451 -0.45787001 1.5101979 16712965
-0.012300861 -0.45786864 1.5101933 16712965
-0.0095672905 -0.45786732 1.5101891 16712965
-0.0068337312 -0.45786595 1.5101845 16712965
-0.0041001905 -0.4578647 1.5101802 16712965
-0.0013666647 -0.45786333 1.5101757 16712965
0.0013668425 -0.45786196 1.5101713 16712965
0.0041003358 -0.45786059 1.5101669 16712965
0.0068338122 -0.45785928 1.5101626 16712965
0.0095672738 -0.45785791 1.5101581 16712965
0.012300719 -0.45785654 1.5101535 16712965
0.01503415 -0.45785522 1.5101492 16712965
0.017767558 -0.45785391 1.5101447 16712965
0.020500956 -0.45785266 1.5101404 16712965
0.023234339 -0.45785129 1.5101359 16712965
0.025967704 -0.45784998 1.5101316 16712708
0.02870105 -0.45784867 1.5101271 16712708
0.031434387 -0.45784724 1.5101228 16712708
0.034167707 -0.45784581 1.5101182 16712708
0.036901005 -0.4578445 1.5101137 16712708
0.039634287 -0.45784312 1.5101093 16712708
0.042367555 -0.45784187 1.5101049 16450564
0.045100808 -0.4578405 1.5101006 16188420
0.047834054 -0.45783913 1.5100961 15926019
0.050567269 -0.45783782 1.5100918 15663875
-0.045159854 -0.45570481 1.5120836 15008772
-0.042422771 -0.4557035 1.5120792 15074308
-0.039685693 -0.45570219 1.5120751 15205380
-0.03694864 -0.45570076 1.5120707 15270916
-0.034211598 -0.45569944 1.5120662 15401988
-0.031474568 -0.45569813 1.5120617 15664132
-0.02873756 -0.45569688 1.5120575 15926276
-0.026000561 -0.45569557 1.512053 16253956
-0.023263585 -0.45569426 1.5120486 16516100
-0.020526621 -0.45569283 1.5120441 16712708
-0.017789675 -0.45569152 1.5120397 16712708
-0.015052745 -0.45569021 1.5120353 16712965
-0.012315827 -0.45568877 1.5120308 16712965
-0.0095789284 -0.45568746 1.5120263 16712965
-0.006842046 -0.45568621 1.512022 16712965
-0.0041051796 -0.45568478 1.5120175 16712965
-0.001368328 -0.45568353 1.5120131 16712965
0.0013685059 -0.45568222 1.5120087 16712965
0.0041053221 -0.45568085 1.5120041 16712965
0.0068421252 -0.45567948 1.5119997 16712965
0.0095789116 -0.45567822 1.5119953 16712965
0.012315683 -0.45567685 1.5119909 16712965
0.015052438 -0.45567536 1.5119864 16712965
0.017789179 -0.45567411 1.511982 16712965
0.020525901 -0.4556728 1.5119774 16712965
0.023262603 -0.45567155 1.5119731 16712965
0.025999295 -0.45567018 1.5119687 16712708
0.028735971 -0.45566881 1.5119643 16712708
0.031472623 -0.4556675 1.5119598 16712708
0.034209274 -0.45566624 1.5119555 16712708
0.036945902 -0.45566487 1.511951 16712708
0.0396825 -0.45566344 1.5119464 16581636
0.042419098 -0.45566207 1.5119421 16319492
0.045155674 -0.45566076 1.5119376 15991812
0.04789225 -0.45565951 1.5119333 15729411
0.050628789 -0.45565814 1.5119288 15467267
-0.045214869 -0.45351952 1.5139256 14746371
-0.042474445 -0.45351827 1.5139213 14811907
-0.039734039 -0.45351696 1.513917 14877700
-0.036993649 -0.45351565 1.5139123 15008772
-0.034253269 -0.4535144 1.5139081 15074308
-0.031512912 -0.45351309 1.5139036 15139844
-0.028772566 -0.45351171 1.5138991 15467524
-0.026032234 -0.45351034 1.5138948 15729668
-0.023291923 -0.45350915 1.5138904 15991812
-0.020551626 -0.45350772 1.5138859 16319492
-0.017811343 -0.45350641 1.5138814 16581636
-0.015071081 -0.45350504 1.513877 16712708
-0.01233083 -0.45350367 1.5138726 16712965
-0.0095905988 -0.45350248 1.5138682 16712965
-0.0068503814 -0.45350099 1.5138636 16712965
-0.0041101798 -0.45349973 1.5138595 16712965
-0.0013699951 -0.45349842 1.5138549 16712965
0.0013701729 -0.45349717 1.5138505 16712965
0.0041103233 -0.45349574 1.5138459 16712965
0.0068504587 -0.45349437 1.5138414 16712965
0.0095905811 -0.45349312 1.5138371 16712965
0.012330685 -0.45349175 1.5138326 16712965
0.015070776 -0.45349044 1.5138283 16712965
0.017810842 -0.45348907 1.5138235 16712965
0.020550901 -0.45348781 1.5138195 16712965
0.023290938 -0.45348644 1.5138149 16712965
0.02603096 -0.45348507 1.5138104 16712708
0.02877097 -0.45348376 1.5138059 16712708
0.031510964 -0.45348245 1.5138016 16712708
0.034250937 -0.45348108 1.513797 16712708
0.036990896 -0.45347983 1.5137928 16647172
0.039730847 -0.4534784 1.5137882 16385028
0.042470768 -0.45347714 1.5137837 16057348
0.045210682 -0.45347571 1.5137793 15795204
0.047950573 -0.4534744 1.5137748 15532803
0.050690457 -0.45347309 1.5137705 15270659
-0.045270003 -0.45132899 1.5157719 14418691
-0.042526245 -0.45132774 1.5157676 14549763
-0.039782494 -0.45132631 1.515763 14615299
-0.037038762 -0.45132512 1.5157588 14681092
-0.034295041 -0.45132393 1.5157545 14746628
-0.031551346 -0.4513225 1.5157499 14812164
-0.028807659 -0.45132124 1.5157456 14943236
-0.026063982 -0.45131987 1.5157411 15205380
-0.023320328 -0.45131862 1.5157368 15467524
-0.020576688 -0.45131725 1.5157323 15795204
-0.017833067 -0.45131594 1.5157279 16057348
-0.015089462 -0.45131457 1.5157232 16319492
-0.012345869 -0.45131332 1.5157189 16581636
-0.0096022934 -0.45131201 1.5157144 16712708
-0.0068587363 -0.45131063 1.5157101 16712965
-0.0041151922 -0.4513092 1.5157055 16712965
-0.0013716668 -0.45130801 1.5157012 16712965
0.0013718456 -0.45130664 1.5156965 16712965
0.0041153394 -0.45130527 1.5156922 16712965
0.0068588164 -0.4513039 1.5156877 16712965
0.0096022785 -0.45130253 1.5156832 16712965
0.012345724 -0.45130128 1.5156788 16712965
0.015089156 -0.45130014 1.5156744 16712965
0.017832568 -0.45129871 1.5156698 16712965
0.020575965 -0.45129728 1.5156653 16712965
0.023319343 -0.45129597 1.515661 16712965
0.02606271 -0.45129466 1.5156565 16712708
0.028806059 -0.45129341 1.5156522 16712708
0.031549394 -0.45129198 1.5156476 16712708
0.034292705 -0.45129067 1.5156432 16647172
0.037036002 -0.4512893 1.5156387 16385028
0.039779298 -0.4512881 1.5156343 16122884
0.042522557 -0.45128679 1.5156298 15860740
0.045265816 -0.45128536 1.5156252 15533060
0.048009053 -0.45128399 1.5156209 15270659
0.050752267 -0.4512828 1.5156164 15008515
-0.045325283 -0.44913316 1.5176227 14156547
-0.042578168 -0.44913185 1.5176182 14222083
-0.039831072 -0.44913054 1.5176139 14287619
-0.037083991 -0.44912928 1.5176096 14353155
-0.034336921 -0.44912803 1.5176053 14418948
-0.031589869 -0.44912666 1.5176008 14550020
-0.028842833 -0.44912541 1.5175965 14615556
-0.026095811 -0.4491241 1.5175921 14681092
-0.023348806 -0.44912273 1.5175877 14943236
-0.020601818 -0.44912142 1.5175831 15205380
-0.017854843 -0.4491201 1.5175786 15467524
-0.015107885 -0.44911885 1.5175743 15729668
-0.012360944 -0.44911742 1.5175697 16057348
-0.0096140187 -0.44911623 1.5175653 16319492
-0.0068671107 -0.44911474 1.5175606 16516100
-0.0041202186 -0.44911349 1.5175564 16712965
-0.0013733413 -0.44911218 1.517552 16712965
0.0013735201 -0.44911093 1.5175475 16712965
0.0041203629 -0.44910967 1.5175431 16712965
0.0068671908 -0.44910818 1.5175385 16712965
0.0096140038 -0.44910687 1.517534 16712965
0.012360798 -0.44910556 1.5175295 16712965
0.015107578 -0.44910425 1.5175252 16712965
0.017854342 -0.44910288 1.5175205 16712965
0.020601088 -0.44910163 1.5175161 16712965
0.023347819 -0.44910032 1.5175116 16712965
0.026094532 -0.44909894 1.5175072 16712708
0.028841229 -0.44909763 1.5175027 16712708
0.031587914 -0.44909626 1.5174983 16647172
0.034334578 -0.44909507 1.5174937 16385028
0.037081227 -0.4490937 1.5174894 16122884
0.039827868 -0.44909233 1.5174849 15860740
0.042574488 -0.4490912 1.5174805 15598596
0.045321085 -0.44908977 1.517476 15270916
0.048067667 -0.44908839 1.5174713 15008515
0.050814241 -0.44908708 1.517467 14746371
-0.045380697 -0.4469319 1.5194781 13828867
-0.042630225 -0.44693053 1.5194738 13894403
-0.039879765 -0.4469294 1.5194693 13959939
-0.037129328 -0.44692814 1.5194651 14025475
-0.034378901 -0.44692677 1.5194607 14091011
-0.031628493 -0.4469254 1.5194561 14156547
-0.028878098 -0.44692421 1.5194519 14222340
-0.026127715 -0.44692284 1.5194473 14287876
-0.023377351 -0.44692159 1.519443 14353412
-0.020627005 -0.44692022 1.5194385 14615556
-0.017876673 -0.44691896 1.5194342 14877700
-0.015126357 -0.44691759 1.5194296 15139844
-0.012376059 -0.4469164 1.5194252 15401988
-0.0096257739 -0.44691497 1.5194206 15664132
-0.0068755075 -0.44691366 1.5194162 15926276
-0.0041252552 -0.44691235 1.5194118 16188420
-0.0013750196 -0.4469111 1.5194074 16385028
0.0013751984 -0.44690973 1.5194027 16581893
0.0041254014 -0.44690853 1.5193983 16712965
0.0068755876 -0.44690704 1.5193937 16712965
0.009625759 -0.44690579 1.5193894 16712965
0.01237591 -0.44690442 1.5193849 16712965
0.015126044 -0.44690311 1.5193803 16712965
0.017876172 -0.44690192 1.5193759 16712965
0.020626267 -0.44690043 1.5193713 16712965
0.023376366 -0.44689918 1.519367 16712708
0.026126431 -0.44689786 1.5193623 16647172
0.028876493 -0.44689655 1.5193579 16450564
0.03162653 -0.44689524 1.5193534 16253956
0.034376554 -0.44689393 1.519349 16057348
0.037126556 -0.44689256 1.5193446 15795204
0.03987655 -0.44689137 1.51934 15533060
0.04262653 -0.44689 1.5193355 15270916
0.045376487 -0.44688857 1.5193311 15008515
0.048126429 -0.44688725 1.5193266 14746371
0.050876357 -0.44688594 1.519322 14484227
-0.045436248 -0.44472522 1.521338 13501187
-0.042682409 -0.44472402 1.5213337 13566723
-0.039928582 -0.44472265 1.5213292 13632259
-0.037174776 -0.44472134 1.5213249 13697795
-0.034420978 -0.44472009 1.5213206 13763331
-0.031667206 -0.44471884 1.5213163 13828867
-0.028913442 -0.44471759 1.5213118 13894403
-0.0261597 -0.44471627 1.5213072 13959939
-0.023405967 -0.4447149 1.5213029 14025732
-0.020652255 -0.44471371 1.5212985 14025732
-0.017898554 -0.44471228 1.5212938 14287876
-0.015144874 -0.44471109 1.5212893 14550020
-0.012391206 -0.44470972 1.5212851 14812164
-0.009637557 -0.44470841 1.5212805 15074308
-0.006883923 -0.44470716 1.521276 15336452
-0.0041303057 -0.44470578 1.5212715 15533060
-0.0013767043 -0.44470447 1.5212671 15795204
0.0013768803 -0.44470328 1.5212626 15991812
0.0041304491 -0.44470191 1.5212582 16122884
0.0068840031 -0.4447006 1.5212538 16319492
0.0096375383 -0.44469923 1.5212491 16385285
0.012391061 -0.44469798 1.5212448 16516357
0.015144559 -0.44469666 1.52124 16516357
0.017898051 -0.44469517 1.5212355 16516100
0.020651521 -0.44469398 1.5212312 16450564
0.023404976 -0.44469267 1.5212266 16319492
0.026158413 -0.44469142 1.5212222 16188420
0.028911835 -0.44469017 1.5212178 16057348
0.031665243 -0.44468868 1.5212133 15860740
0.034418628 -0.44468737 1.5212086 15664132
0.037172005 -0.44468617 1.5212042 15401988
0.039925359 -0.44468474 1.5211997 15139844
0.042678706 -0.44468349 1.5211953 14877700
0.045432024 -0.4446823 1.5211908 14615299
0.048185341 -0.44468087 1.5211864 14418691
0.050938636 -0.4446795 1.5211818 14156547
-0.045491934 -0.44251323 1.5232025 13173507
-0.042734712 -0.44251198 1.5231981 13239043
-0.039977521 -0.44251072 1.5231938 13304579
-0.037220336 -0.44250929 1.5231892 13370115
-0.034463163 -0.4425081 1.5231848 13435651
-0.031706017 -0.44250679 1.5231805 13501187
-0.028948881 -0.44250548 1.5231762 13566723
-0.026191758 -0.44250423 1.5231718 13566723
-0.023434656 -0.44250298 1.5231674 13632259
-0.020677567 -0.44250166 1.523163 13697795
-0.017920494 -0.44250041 1.5231586 13698052
-0.015163434 -0.44249904 1.5231538 13960196
-0.012406393 -0.44249779 1.5231495 14156804
-0.0096493689 -0.44249648 1.523145 14418948
-0.0068923607 -0.44249511 1.5231405 14615556
-0.0041353665 -0.44249386 1.5231359 14877700
-0.0013783919 -0.4424926 1.5231316 15074308
0.0013785679 -0.44249123 1.5231268 15336452
0.0041355118 -0.44248992 1.5231225 15467524
0.0068924371 -0.44248867 1.523118 15664132
0.0096493512 -0.44248736 1.5231135 15795204
0.012406245 -0.44248599 1.523109 15860740
0.015163118 -0.44248474 1.5231044 15926276
0.017919986 -0.44248337 1.5230999 15926276
0.020676831 -0.44248217 1.5230956 15860740
0.023433654 -0.44248074 1.5230908 15795204
0.026190469 -0.44247949 1.5230863 15729668
0.028947266 -0.44247824 1.523082 15533060
0.031704053 -0.44247693 1.5230775 15401988
0.034460813 -0.44247556 1.5230731 15205380
0.037217557 -0.44247431 1.5230684 14943236
0.039974295 -0.44247288 1.5230641 14746628
0.042731009 -0.44247162 1.5230595 14484227
0.045487709 -0.44247043 1.5230551 14287619
0.048244387 -0.44246894 1.5230505 14025475
0.051001057 -0.44246781 1.523046 13763331
-0.045547754 -0.44029576 1.5250716 12845827
-0.042787157 -0.44029438 1.5250673 12911363
-0.040026572 -0.44029301 1.5250627 12976899
-0.037266009 -0.44029188 1.5250583 12976899
-0.034505457 -0.44029051 1.5250539 13042435
-0.03174492 -0.44028932 1.5250494 13107971
-0.0289844 -0.44028801 1.5250452 13173507
-0.026223898 -0.44028682 1.5250409 13173507
-0.023463409 -0.44028556 1.5250365 13239043
-0.020702939 -0.44028425 1.5250318 13304579
-0.017942483 -0.44028288 1.5250273 13304579
-0.015182042 -0.44028169 1.525023 13304579
-0.012421617 -0.44028032 1.5250186 13566980
-0.0096612098 -0.44027913 1.525014 13763588
-0.0069008181 -0.44027776 1.5250094 13960196
-0.0041404422 -0.44027656 1.5250051 14222340
-0.0013800832 -0.44027513 1.5250003 14418948
0.0013802592 -0.44027382 1.5249958 14615556
0.0041405857 -0.44027251 1.5249914 14812164
0.0069008935 -0.44027126 1.524987 14943236
0.0096611883 -0.44026995 1.5249825 15074308
0.012421466 -0.4402687 1.524978 15205380
0.015181726 -0.44026738 1.5249734 15270916
0.017941976 -0.44026613 1.5249691 15270916
0.0207022 -0.44026476 1.5249643 15270916
0.023462413 -0.44026345 1.5249598 15205380
0.026222607 -0.4402622 1.5249554 15139844
0.028982783 -0.44026089 1.5249507 15008772
0.031742953 -0.44025952 1.5249462 14877700
0.034503087 -0.4402582 1.5249417 14681092
0.037263229 -0.44025695 1.5249374 14484484
0.040023342 -0.4402557 1.5249327 14287876
0.042783439 -0.44025439 1.5249283 14091011
0.045543522 -0.44025314 1.5249239 13828867
0.048303582 -0.44025171 1.5249193 13632259
0.051063634 -0.44025052 1.5249149 13435651
-0.045603719 -0.4380728 1.5269454 12518147
-0.042839721 -0.43807161 1.5269411 12518147
-0.040075749 -0.43807024 1.5269363 12583683
-0.037311789 -0.43806899 1.526932 12649219
-0.034547847 -0.43806767 1.5269277 12714755
-0.031783916 -0.43806648 1.5269231 12714755
-0.029020006 -0.43806517 1.5269186 12780291
-0.026256112 -0.43806386 1.5269141 12780291
-0.023492234 -0.43806255 1.5269098 12845827
-0.02072837 -0.43806136 1.5269054 12845827
-0.017964527 -0.43806005 1.526901 12911363
-0.015200694 -0.43805885 1.5268966 12911363
-0.012436878 -0.43805754 1.5268921 12911363
-0.0096730795 -0.43805629 1.5268877 13107971
-0.0069092968 -0.43805504 1.5268831 13304836
-0.0041455291 -0.43805367 1.5268785 13501444
-0.0013817782 -0.4380523 1.5268741 13698052
0.001381956 -0.4380511 1.5268695 13894660
0.0041456725 -0.43804967 1.526865 14091268
0.0069093741 -0.43804842 1.5268605 14222340
0.0096730571 -0.43804711 1.5268559 14353412
0.012436727 -0.43804586 1.5268514 14484484
0.015200378 -0.43804461 1.5268471 14550020
0.017964015 -0.43804318 1.5268422 14615556
0.020727633 -0.43804204 1.5268379 14615556
0.023491235 -0.43804061 1.5268333 14615556
0.026254823 -0.43803942 1.526829 14550020
0.029018393 -0.43803817 1.5268245 14418948
0.031781942 -0.43803674 1.5268197 14287876
0.034545481 -0.43803549 1.5268152 14156804
0.037308998 -0.43803418 1.5268106 13960196
0.040072508 -0.43803293 1.5268062 13828867
0.042836003 -0.43803161 1.5268017 13632259
0.045599468 -0.43803036 1.5267973 13370115
0.048362918 -0.43802893 1.5267925 13173507
0.051126368 -0.43802774 1.5267882 12976899
-0.04565981 -0.43584436 1.5288237 12124931
-0.042892426 -0.43584317 1.5288191 12190467
-0.040125046 -0.43584186 1.5288148 12190467
-0.03735768 -0.43584061 1.5288103 12256003
-0.034590349 -0.43583935 1.5288059 12321539
-0.031823017 -0.43583804 1.5288014 12321539
-0.029055703 -0.43583679 1.5287968 12387075
-0.026288409 -0.43583554 1.5287924 12387075
-0.023521131 -0.43583429 1.528788 12452611
-0.020753868 -0.43583298 1.5287837 12452611
-0.017986624 -0.43583179 1.5287793 12452611
-0.015219392 -0.43583041 1.5287747 12452611
-0.012452178 -0.43582922 1.5287703 12518147
-0.009684979 -0.43582791 1.5287657 12452611
-0.0069177961 -0.4358266 1.5287614 12649219
-0.004150629 -0.43582535 1.5287569 12845827
-0.0013834788 -0.43582404 1.5287523 12976899
0.0013836548 -0.43582273 1.5287476 13173764
0.0041507725 -0.43582141 1.5287431 13370372
0.0069178734 -0.43582016 1.5287387 13501444
0.0096849557 -0.43581885 1.5287342 13632516
0.012452025 -0.43581754 1.5287297 13763588
0.015219076 -0.43581629 1.5287249 13829124
0.017986113 -0.4358151 1.5287206 13894660
0.020753132 -0.43581367 1.528716 13894660
0.023520133 -0.43581247 1.5287116 13894660
0.026287118 -0.4358111 1.5287069 13829124
0.029054089 -0.43580985 1.5287025 13763588
0.031821042 -0.4358086 1.5286978 13698052
0.034587979 -0.43580723 1.5286934 13566980
0.037354894 -0.43580604 1.5286888 13435651
0.040121801 -0.43580478 1.5286843 13239043
0.042888686 -0.43580341 1.5286797 13107971
0.045655556 -0.4358021 1.5286751 12911363
0.048422419 -0.43580079 1.5286707 12714755
0.051189259 -0.43579948 1.528666 12518147
-0.045716055 -0.43361056 1.5307066 11731715
-0.042945251 -0.43360925 1.5307021 11797251
-0.040174469 -0.433608 1.5306977 11862787
-0.037403695 -0.43360668 1.5306932 11862787
-0.034632947 -0.43360549 1.5306888 11928323
-0.03186221 -0.43360424 1.5306842 11928323
-0.029091492 -0.43360293 1.5306798 11928323
-0.026320789 -0.43360162 1.5306753 11993859
-0.023550101 -0.43360043 1.5306709 11993859
-0.020779431 -0.43359923 1.5306665 11993859
-0.018008772 -0.43359786 1.5306619 12059395
-0.015238136 -0.43359661 1.5306575 12059395
-0.012467514 -0.43359542 1.5306531 12059395
-0.0096969064 -0.43359405 1.5306487 12059395
-0.0069263158 -0.43359286 1.5306442 11993859
-0.0041557401 -0.43359154 1.5306396 12124931
-0.0013851831 -0.43359017 1.5306351 12321539
0.0013853591 -0.43358898 1.5306305 12452611
0.0041558836 -0.43358773 1.5306261 12583683
0.0069263913 -0.43358642 1.5306214 12780291
0.0096968841 -0.43358511 1.5306168 12911620
0.01246736 -0.43358392 1.5306123 12977156
0.015237814 -0.43358248 1.5306078 13108228
0.01800826 -0.43358123 1.5306033 13173764
0.020778688 -0.43357998 1.5305988 13173764
0.0235491 -0.43357867 1.5305942 13173764
0.026319491 -0.43357742 1.5305898 13173764
0.029089866 -0.43357611 1.5305851 13108228
0.031860232 -0.43357491 1.5305808 13042435
0.034630574 -0.43357354 1.5305761 12976899
0.037400901 -0.43357223 1.5305715 12845827
0.040171213 -0.43357104 1.5305669 12714755
0.042941503 -0.43356973 1.5305624 12518147
0.045711793 -0.43356848 1.5305579 12387075
0.048482046 -0.43356717 1.5305533 12190467
0.051252298 -0.4335658 1.5305488 11213071
-0.045772426 -0.43137109 1.5325942 11403778
-0.04299821 -0.43136996 1.5325897 11404035
-0.040224008 -0.43136853 1.5325851 11469571
-0.037449822 -0.43136734 1.5325806 11469571
-0.034675654 -0.43136597 1.5325762 11469571
-0.031901501 -0.43136489 1.5325718 11535107
-0.029127359 -0.43136352 1.5325674 11535107
-0.02635324 -0.43136233 1.5325627 11535107
-0.023579139 -0.43136108 1.5325583 11600643
-0.020805052 -0.43135971 1.5325537 11600643
-0.018030979 -0.43135858 1.5325494 11600643
-0.015256925 -0.4313572 1.5325449 11600643
-0.012482887 -0.43135595 1.5325406 11600643
-0.0097088637 -0.43135482 1.532536 11535107
-0.0069348579 -0.43135357 1.5325315 11535107
-0.0041608652 -0.43135232 1.5325272 11535107
-0.0013868911 -0.43135095 1.5325226 11600643
0.0013870671 -0.43134981 1.532518 11731715
0.0041610096 -0.43134844 1.5325134 11862787
0.0069349334 -0.43134719 1.5325089 11993859
0.0097088423 -0.43134588 1.5325043 12124931
0.012482734 -0.43134463 1.5324998 12256003
0.015256604 -0.43134326 1.5324953 12321539
0.01803047 -0.43134212 1.5324907 12387075
0.020804314 -0.43134081 1.5324861 12452611
0.023578139 -0.43133944 1.5324814 12452611
0.026351949 -0.43133825 1.532477 12452611
0.029125737 -0.431337 1.5324725 12452611
0.031899519 -0.43133557 1.5324678 12387075
0.034673274 -0.43133438 1.5324636 12321539
0.03744702 -0.43133307 1.5324588 12190467
0.040220745 -0.43133175 1.5324541 12059395
0.042994455 -0.4313305 1.5324498 11993859
0.045768149 -0.43132919 1.5324452 11797251
0.048541822 -0.431328 1.5324405 11666179
0.051315494 -0.43132669 1.5324361 10951184
-0.045828931 -0.4291262 1.5344862 11010562
-0.043051295 -0.42912495 1.5344819 11010562
-0.040273666 -0.4291237 1.5344775 11076098
-0.03749606 -0.42912251 1.5344729 11076098
-0.034718469 -0.42912114 1.5344684 11076355
-0.031940885 -0.42911988 1.5344639 11076355
-0.029163323 -0.42911857 1.5344594 11141891
-0.02638578 -0.42911744 1.5344551 11141891
-0.023608249 -0.42911613 1.5344503 11141891
-0.020830737 -0.42911494 1.5344459 11141891
-0.018053243 -0.42911369 1.5344415 11141891
-0.015275761 -0.42911237 1.5344369 11141891
-0.012498297 -0.42911106 1.5344323 11141891
-0.0097208498 -0.42910987 1.5344279 11076355
-0.0069434186 -0.42910874 1.5344236 11076355
-0.0041660024 -0.42910743 1.5344191 11010819
-0.0013886038 -0.42910618 1.5344146 11010819
0.0013887789 -0.42910486 1.53441 11076355
0.004166143 -0.42910367 1.5344055 11207427
0.0069434922 -0.4291023 1.5344008 11272963
0.0097208284 -0.42910105 1.5343963 11404035
0.012498146 -0.4290998 1.5343919 11535107
0.015275443 -0.42909855 1.5343872 11600643
0.018052729 -0.42909718 1.5343826 11666179
0.020829996 -0.42909586 1.5343783 11731715
0.023607245 -0.42909467 1.5343735 11731715
0.026384478 -0.42909336 1.534369 11731715
0.029161694 -0.42909211 1.5343645 11731715
0.031938903 -0.42909086 1.5343599 11666179
0.034716077 -0.42908961 1.5343554 11600643
0.037493251 -0.42908829 1.5343509 11535107
0.040270396 -0.42908698 1.5343461 11469571
0.043047532 -0.42908573 1.5343415 11338499
0.045824654 -0.42908454 1.534337 11141891
0.048601754 -0.42908323 1.5343324 11076355
0.051378839 -0.42908192 1.5343279 10623247
-0.045885589 -0.42687565 1.5363832 10617346
-0.043104511 -0.4268744 1.5363785 10617346
-0.040323451 -0.42687321 1.5363741 10682882
-0.037542406 -0.42687207 1.5363698 10682882
-0.034761384 -0.42687076 1.5363653 10682882
-0.031980369 -0.42686945 1.5363607 10682882
-0.029199375 -0.42686826 1.5363562 10682882
-0.026418397 -0.42686689 1.5363517 10682882
-0.023637436 -0.42686576 1.5363474 10683139
-0.020856488 -0.42686445 1.5363429 10683139
-0.018075557 -0.42686325 1.5363382 10683139
-0.015294644 -0.426862 1.5363338 10683139
-0.012513747 -0.42686069 1.5363293 10617603
-0.0097328667 -0.42685956 1.5363247 10617603
-0.0069520017 -0.42685819 1.5363202 10617603
-0.0041711526 -0.42685694 1.5363157 10552067
-0.0013903193 -0.4268558 1.5363114 10486531
0.0013904944 -0.42685449 1.5363069 10486531
0.0041712932 -0.42685336 1.5363023 10486531
0.0069520772 -0.42685199 1.5362978 10617603
0.0097328424 -0.42685074 1.536293 10683139
0.012513593 -0.42684942 1.5362885 10748675
0.015294326 -0.42684811 1.5362837 10879747
0.018075047 -0.42684692 1.5362794 10945283
0.020855749 -0.42684567 1.5362747 10945283
0.023636432 -0.42684442 1.5362704 11010819
0.026417093 -0.42684311 1.5362656 11010819
0.029197747 -0.4268418 1.5362611 11010819
0.031978384 -0.42684048 1.5362563 11010819
0.034759 -0.42683929 1.536252 10945283
0.037539601 -0.42683798 1.5362474 10879747
0.04032018 -0.42683673 1.5362427 10814211
0.043100752 -0.42683542 1.5362382 10748675
0.045881301 -0.42683417 1.5362335 10683139
0.048661828 -0.42683285 1.536229 10551810
0.051442347 -0.42683166 1.5362244 10033166
-0.045942374 -0.42461967 1.5382847 10224130
-0.043157861 -0.42461836 1.5382801 10224130
-0.040373359 -0.42461705 1.5382757 10224130
-0.037588872 -0.42461592 1.5382713 10224130
-0.034804411 -0.42461485 1.5382669 10224130
-0.03201995 -0.42461354 1.5382624 10224130
-0.029235516 -0.42461222 1.5382577 10224130
-0.026451094 -0.42461103 1.5382533 10224130
-0.023666691 -0.42460978 1.5382488 10224130
-0.020882303 -0.42460853 1.5382442 10224130
-0.018097932 -0.42460728 1.5382396 10224130
-0.015313574 -0.42460597 1.5382352 10158594
-0.012529234 -0.42460471 1.5382307 10158594
-0.0097449124 -0.42460346 1.5382261 10158594
-0.0069606062 -0.42460221 1.5382217 10093315
-0.0041763159 -0.42460096 1.5382172 10093315
-0.0013920404 -0.42459977 1.5382128 10027779
0.0013922155 -0.42459857 1.5382082 9962243
0.0041764565 -0.42459738 1.5382037 9896707
0.0069606807 -0.42459607 1.5381992 9896707
0.0097448882 -0.42459476 1.5381944 10027779
0.012529081 -0.42459345 1.5381899 10093315
0.015313258 -0.42459214 1.5381854 10158851
0.018097417 -0.42459095 1.5381807 10224387
0.020881562 -0.42458975 1.5381763 10224387
0.023665683 -0.42458844 1.5381716 10289923
0.026449794 -0.42458719 1.5381671 10289923
0.029233882 -0.42458588 1.5381625 10289923
0.032017961 -0.42458463 1.5381579 10289923
0.03480202 -0.42458332 1.5381532 10289923
0.037586063 -0.42458218 1.5381488 10224387
0.040370084 -0.42458087 1.5381441 10158851
0.043154091 -0.42457956 1.5381395 10093058
0.045938089 -0.42457837 1.5381351 10027522
0.048722059 -0.42457712 1.5381305 9961986
0.051506028 -0.42457575 1.5381258 9639949
-0.045999315 -0.42235804 1.5401912 9830914
-0.043211345 -0.42235678 1.5401866 9830914
-0.040423393 -0.42235565 1.5401821 9830914
-0.037635453 -0.42235422 1.5401773 9830914
-0.034847535 -0.42235303 1.5401728 9830914
-0.032059632 -0.42235184 1.5401685 9830914
-0.029271744 -0.42235059 1.540164 9830914
-0.026483875 -0.42234939 1.5401595 9830914
-0.02369602 -0.42234808 1.5401549 9765378
-0.020908181 -0.42234689 1.5401504 9765378
-0.018120356 -0.42234558 1.5401459 9765378
-0.015332551 -0.42234445 1.5401413 9699842
-0.01254476 -0.42234313 1.5401368 9699842
-0.0097569898 -0.42234194 1.5401323 9634306
-0.0069692312 -0.42234069 1.5401279 9634306
-0.0041814912 -0.42233938 1.5401233 9568770
-0.0013937661 -0.42233825 1.5401188 9503234
0.0013939422 -0.422337 1.5401143 9503234
0.0041816328 -0.42233586 1.5401099 9437698
0.0069693066 -0.42233455 1.5401053 9372162
0.0097569656 -0.4223333 1.5401009 9372162
0.012544608 -0.42233205 1.5400962 9437698
0.015332231 -0.42233074 1.5400915 9437698
0.018119844 -0.42232955 1.540087 9503234
0.020907437 -0.42232829 1.5400823 9568770
0.023695009 -0.42232692 1.5400778 9568770
0.026482565 -0.42232561 1.5400732 9568770
0.029270107 -0.42232454 1.5400686 9634306
0.032057635 -0.42232323 1.5400639 9634306
0.034845151 -0.42232198 1.5400594 9568770
0.037632629 -0.42232066 1.5400548 9568770
0.040420115 -0.42231941 1.54005 9503234
0.043207571 -0.42231816 1.5400455 9503234
0.045995012 -0.42231685 1.540041 9437698
0.048782431 -0.4223156 1.5400363 9372162
0.051569842 -0.42231435 1.5400319 9246734
-0.04605639 -0.42009079 1.5421021 9437698
-0.043264955 -0.42008948 1.5420976 9437698
-0.040473547 -0.42008817 1.5420929 9437698
-0.03768215 -0.42008704 1.5420884 9437698
-0.034890771 -0.42008585 1.542084 9437698
-0.032099411 -0.42008466 1.5420794 9372162
-0.02930806 -0.42008328 1.5420748 9372162
-0.026516736 -0.42008215 1.5420704 9372162
-0.02372542 -0.42008084 1.5420659 9306626
-0.020934124 -0.42007971 1.5420613 9306626
-0.01814284 -0.42007846 1.5420568 9306626
-0.015351574 -0.42007726 1.5420523 9241090
-0.012560327 -0.42007601 1.5420477 9241090
-0.0097690932 -0.42007482 1.5420432 9175554
-0.0069778794 -0.42007357 1.5420387 9110018
-0.0041866787 -0.42007232 1.5420341 9110018
-0.0013954965 -0.42007113 1.5420296 9044482
0.0013956707 -0.42006981 1.5420251 8978946
0.0041868202 -0.42006862 1.5420206 8913410
0.0069779549 -0.42006725 1.542016 8847874
0.0097690709 -0.42006606 1.5420115 8782338
0.012560174 -0.42006493 1.5420071 8782338
0.015351256 -0.42006361 1.5420024 8847874
0.018142326 -0.42006236 1.5419979 8847874
0.020933377 -0.42006111 1.5419931 8913410
0.023724413 -0.42005986 1.5419886 8913410
0.026515426 -0.42005861 1.5419841 8913410
0.029306425 -0.42005736 1.5419793 8913410
0.032097414 -0.42005605 1.5419748 8913410
0.034888379 -0.42005479 1.54197 8913410
0.03767933 -0.42005354 1.5419656 8913410
0.040470257 -0.42005229 1.5419608 8913410
0.04326117 -0.42005104 1.5419562 8847874
0.046052076 -0.42004985 1.5419517 8847874
0.048842959 -0.42004859 1.5419471 8782338
0.051633827 -0.42004728 1.5419425 8853773
-0.046113603 -0.41781789 1.5440178 9044482
-0.043318707 -0.41781676 1.5440133 9044482
-0.040523827 -0.41781545 1.5440087 9044482
-0.037728965 -0.41781425 1.5440042 8978946
-0.034934118 -0.41781294 1.5439997 8978946
-0.032139286 -0.41781169 1.543995 8978946
-0.029344469 -0.41781056 1.5439905 8913410
-0.026549673 -0.41780925 1.543986 8913410
-0.023754893 -0.41780806 1.5439816 8913410
-0.020960128 -0.4178068 1.543977 8847874
-0.01816538 -0.41780561 1.5439725 8782338
-0.015370648 -0.41780442 1.543968 8782338
-0.012575931 -0.41780323 1.5439634 8716802
-0.0097812284 -0.41780198 1.5439587 8716802
-0.0069865473 -0.41780066 1.5439543 8651266
-0.0041918801 -0.41779947 1.5439496 8585730
-0.0013972297 -0.41779828 1.5439451 8520194
0.001397403 -0.41779703 1.5439408 8454658
0.0041920189 -0.41779578 1.5439361 8454658
0.0069866218 -0.41779459 1.5439316 8389122
0.009781206 -0.41779339 1.5439273 8323586
0.012575775 -0.4177922 1.5439225 8258050
0.015370326 -0.41779089 1.543918 8192514
0.018164864 -0.4177897 1.5439134 8258050
0.020959383 -0.41778851 1.5439088 8258050
0.02375388 -0.41778719 1.5439042 8258050
0.026548361 -0.41778588 1.5438995 8323586
0.029342828 -0.41778457 1.5438948 8323586
0.032137282 -0.41778338 1.5438902 8323586
0.034931719 -0.41778219 1.5438857 8323586
0.037726127 -0.41778088 1.5438809 8323586
0.040520534 -0.41777968 1.5438764 8258050
0.043314919 -0.41777843 1.5438718 8258050
0.046109289 -0.41777712 1.5438673 8258050
0.048903629 -0.41777587 1.5438625 8192514
0.051697962 -0.41777468 1.5438581 8329229
-0.046170965 -0.41553932 1.5459385 8651266
-0.043372594 -0.41553819 1.545934 8651266
-0.040574234 -0.41553688 1.5459292 8585730
-0.037775893 -0.41553575 1.5459247 8585730
-0.03497757 -0.41553444 1.5459201 8585730
-0.032179266 -0.41553324 1.5459156 8520194
-0.029380968 -0.41553193 1.545911 8520194
-0.026582697 -0.41553068 1.5459064 8454658
-0.023784438 -0.41552955 1.545902 8454658
-0.020986199 -0.4155283 1.5458975 8389122
-0.018187972 -0.41552716 1.545893 8323586
-0.015389763 -0.41552585 1.5458883 8323586
-0.012591572 -0.41552466 1.5458839 8258050
-0.0097933952 -0.41552347 1.5458794 8192514
-0.0069952384 -0.41552222 1.5458746 8192514
-0.0041970937 -0.41552103 1.5458702 8126978
-0.0013989676 -0.41551983 1.5458655 8061442
0.0013991408 -0.41551858 1.545861 7995906
0.0041972343 -0.41551733 1.5458565 7930370
0.0069953091 -0.41551608 1.5458519 7864834
0.009793371 -0.41551483 1.5458473 7799298
0.012591416 -0.41551369 1.5458428 7733762
0.015389444 -0.4155125 1.5458384 7668226
0.018187458 -0.41551119 1.5458338 7602690
0.020985452 -0.41551 1.5458291 7668226
0.023783429 -0.41550881 1.5458245 7668226
0.02658139 -0.41550756 1.5458199 7668226
0.029379325 -0.41550624 1.5458151 7668226
0.032177255 -0.41550499 1.5458106 7668226
0.034975164 -0.41550386 1.5458059 7668226
0.037773058 -0.41550255 1.5458014 7668226
0.04057093 -0.4155013 1.5457966 7668226
0.043368794 -0.4155001 1.5457921 7668226
0.046166636 -0.41549873 1.5457873 7668226
0.048964456 -0.41549754 1.5457828 7668226
0.051762268 -0.41549629 1.545778 8001806
-0.046228468 -0.41325516 1.5478637 8257793
-0.043426611 -0.41325396 1.5478592 8257793
-0.040624771 -0.41325265 1.5478544 8192514
-0.037822939 -0.41325152 1.5478499 8192514
-0.035021134 -0.41325027 1.5478454 8126978
-0.032219335 -0.41324908 1.5478408 8126978
-0.029417563 -0.41324776 1.5478363 8061442
-0.026615802 -0.41324663 1.5478318 8061442
-0.023814058 -0.41324532 1.5478272 7995906
-0.021012332 -0.41324419 1.5478227 7930370
-0.018210623 -0.41324294 1.5478179 7930370
-0.015408929 -0.41324174 1.5478134 7864834
-0.012607254 -0.41324055 1.547809 7799298
-0.0098055918 -0.41323936 1.5478045 7733762
-0.007003949 -0.41323811 1.5477998 7668226
-0.0042023212 -0.41323698 1.5477953 7668226
-0.0014007101 -0.41323566 1.5477908 7602690
0.0014008842 -0.41323435 1.5477861 7537154
0.0042024609 -0.41323316 1.5477816 7471618
0.0070040207 -0.41323197 1.5477771 7406082
0.0098055676 -0.41323078 1.5477725 7340546
0.012607096 -0.41322958 1.5477679 7275010
0.015408607 -0.41322827 1.5477633 7209474
0.018210107 -0.41322726 1.5477589 7143938
0.021011589 -0.41322595 1.5477543 7078402
0.023813045 -0.4132247 1.5477496 7143938
0.026614493 -0.41322351 1.5477451 7143938
0.029415915 -0.41322231 1.5477405 7143938
0.032217324 -0.41322094 1.5477356 7143938
0.03501872 -0.41321975 1.547731 7143938
0.037820101 -0.4132185 1.5477264 7143938
0.040621452 -0.41321713 1.5477216 7143938
0.043422803 -0.41321594 1.5477171 7143938
0.046224132 -0.41321486 1.5477126 7078145
0.049025431 -0.41321367 1.5477079 7078145
0.051826738 -0.41321236 1.5477033 7542797
-0.046286117 -0.41096526 1.5497937 7864577
-0.043480761 -0.41096401 1.5497893 7864577
-0.040675424 -0.41096288 1.5497847 7799041
-0.037870105 -0.41096157 1.5497801 7733505
-0.035064802 -0.41096044 1.5497755 7733505
-0.032259516 -0.41095918 1.5497711 7667969
-0.029454244 -0.41095793 1.5497665 7667969
-0.026648993 -0.41095674 1.5497618 7602433
-0.023843756 -0.41095555 1.5497572 7536897
-0.021038536 -0.41095436 1.5497527 7471361
-0.018233331 -0.41095316 1.5497482 7471361
-0.015428145 -0.41095197 1.5497437 7406082
-0.012622974 -0.41095072 1.5497389 7340546
-0.00981782 -0.41094941 1.5497346 7275010
-0.007012682 -0.41094822 1.5497298 7209474
-0.0042075617 -0.41094702 1.5497253 7209474
-0.0014024563 -0.41094589 1.5497208 7143938
0.0014026314 -0.4109447 1.5497161 7078402
0.0042077005 -0.41094339 1.5497116 7012866
0.0070127547 -0.41094226 1.5497069 6947330
0.0098177921 -0.410941 1.5497024 6881794
0.012622816 -0.41093963 1.5496978 6816258
0.015427819 -0.4109385 1.5496931 6684672
0.018232809 -0.41093731 1.5496886 6684672
0.021037785 -0.41093612 1.5496842 6684672
0.023842743 -0.41093493 1.5496796 6684672
0.026647674 -0.41093367 1.5496749 6684672
0.029452598 -0.41093248 1.5496703 6684672
0.032257497 -0.41093129 1.5496656 6684672
0.035062388 -0.4109301 1.5496609 6684672
0.037867256 -0.41092879 1.5496563 6684672
0.040672116 -0.41092747 1.5496515 6684672
0.043476939 -0.41092622 1.549647 6684672
0.04628177 -0.41092509 1.5496424 6684672
0.049086563 -0.41092384 1.5496376 6684672
0.051891349 -0.41092253 1.5496329 7810585
-0.046343893 -0.40866953 1.5517286 7471361
-0.043535046 -0.40866846 1.5517242 7405825
-0.040726207 -0.40866715 1.5517197 7405825
