# .PCD v0.7 - Point Cloud Data file format
VERSION 0.7
FIELDS x y z normal_x normal_y normal_z curvature
SIZE 4 4 4 4 4 4 4
TYPE F F F F F F F
COUNT 1 1 1 1 1 1 1
WIDTH 622
HEIGHT 1
VIEWPOINT 0 0 0 1 0 0 0
POINTS 622
DATA ascii
-0.075389445 -0.45919055 1.5145538 -0.71139902 0.45207062 -0.53809249 0
-0.072497033 -0.45823646 1.5114064 -0.69902903 0.46950918 -0.53936952 0.00046939836
-0.06963145 -0.45738351 1.5085931 -0.68083096 0.48161399 -0.55183077 0.0021586053
-0.066782795 -0.4565767 1.5059323 -0.64494735 0.50436133 -0.57416248 0
-0.063951097 -0.45582217 1.5034434 -0.6312294 0.51387107 -0.58093542 0.0020264483
-0.061137535 -0.45513564 1.5011787 -0.5888353 0.52957112 -0.61059606 0
-0.058335982 -0.45447862 1.499012 -0.5469743 0.5483827 -0.63253111 0.0013347523
-0.055558145 -0.45395118 1.4972726 -0.50025052 0.57239234 -0.64970487 0.0026593113
-0.052786745 -0.45342517 1.4955374 -0.45866895 0.58876348 -0.6655677 0
-0.05003491 -0.4530195 1.4941994 -0.42007461 0.59771115 -0.68284607 0.0038212843
-0.0472904 -0.45263743 1.4929391 -0.3829765 0.60336 -0.69948953 0.0044459421
-0.044555612 -0.45230782 1.4918518 -0.34267661 0.61276037 -0.71210778 0.0047455709
-0.041828528 -0.4520188 1.4908987 -0.30759349 0.62112308 -0.72082752 0.0032282972
-0.039105456 -0.45173639 1.4899673 -0.27247196 0.62726927 -0.72958362 0.0037559704
-0.036392875 -0.45154214 1.489327 -0.24105017 0.63318658 -0.73550636 0.0046597617
-0.033682685 -0.45134902 1.4886894 -0.21149889 0.63434654 -0.74355412 0
-0.030975681 -0.45116872 1.4880948 -0.18933651 0.63996655 -0.74471104 0
-0.028272936 -0.45102197 1.4876108 -0.17091414 0.63948822 -0.74956197 0.00074751629
-0.02557211 -0.45087802 1.4871364 -0.14660446 0.64273041 -0.75193405 0.0030160155
-0.022873938 -0.45075285 1.4867231 -0.115241 0.64856207 -0.75238734 0.0072266832
-0.020178691 -0.45065928 1.4864147 -0.081511237 0.64734465 -0.75782645 0
-0.017486429 -0.45061404 1.4862652 -0.045761507 0.64630109 -0.76170909 0.001111606
-0.014795648 -0.45059729 1.4862101 -0.0098479856 0.65033233 -0.75958598 0
-0.012105195 -0.45058542 1.4861711 0.024840744 0.6472519 -0.76187134 0.0010241146
-0.0094159553 -0.45062488 1.4863011 0.062197328 0.64693147 -0.76000732 0
-0.0067266207 -0.45068944 1.4865139 0.10149789 0.63953835 -0.76202947 0
-0.0040370692 -0.4508158 1.4869308 0.14332895 0.63575482 -0.75846738 0
-0.0013460051 -0.4509421 1.4873475 0.17680006 0.63398433 -0.7528649 0.0027731215
0.0013467353 -0.45112622 1.4879547 0.20760287 0.63448918 -0.74452978 0.0073081595
0.0040417463 -0.4513182 1.488588 0.23598567 0.63642937 -0.73434907 0.0087519586
0.0067390501 -0.45151037 1.4892218 0.26137969 0.6285395 -0.73254263 0.0051960205
0.0094395913 -0.45174742 1.4900035 0.28455532 0.6214484 -0.7299521 0
0.012144215 -0.45203125 1.4909399 0.31366 0.61545491 -0.72307175 0.006325251
0.014852509 -0.45232344 1.4919038 0.33636907 0.60870045 -0.71856779 0.0045334343
0.017565234 -0.45264018 1.4929478 0.35748667 0.60096413 -0.71487445 0.0039413273
0.020281719 -0.45295626 1.4939907 0.37373567 0.59418947 -0.71222228 0.0004925633
0.023004351 -0.45331919 1.4951878 0.40057689 0.58592653 -0.70443469 0
0.025732877 -0.45370942 1.4964751 0.43239978 0.5742358 -0.69518608 0.0011633718
0.028466707 -0.45411015 1.4977968 0.46801594 0.55685842 -0.68619943 0.00015279939
0.031213848 -0.45463508 1.4995281 0.5096311 0.54484057 -0.66590154 0
0.033968627 -0.45517832 1.5013195 0.56095541 0.5260635 -0.6392076 0
0.036739416 -0.45583975 1.5035014 0.60751784 0.50526392 -0.61288691 0
0.039522745 -0.45655471 1.5058596 0.6561892 0.48141849 -0.58107823 0.0037417125
0.042320944 -0.45733815 1.5084436 0.6720863 0.45939815 -0.58073515 0
0.045134105 -0.45817858 1.5112153 0.69766575 0.4558301 -0.55270368 0.0014523977
0.047959894 -0.45904362 1.514069 0.71293539 0.4438065 -0.54291701 0
0.050803505 -0.45997679 1.5171465 0.73945129 0.41990224 -0.52620721 0
0.053671174 -0.46102077 1.5205898 0.77249634 0.40314767 -0.49063358 0.0028488103
0.056559548 -0.46213198 1.5242553 0.7943455 0.3877044 -0.46765417 0.0025174443
0.059489287 -0.46346223 1.5286427 0.8353675 0.34149891 -0.43074307 0
0.062477238 -0.46510768 1.5340695 0.89912498 0.26577988 -0.34775755 0.00082751689
0.065559149 -0.46728241 1.5412432 0.92559558 0.21831183 -0.30921319 0
0.068733625 -0.46991277 1.5499185 0.93969345 0.2002652 -0.27725446 0
-0.094131283 -0.46784681 1.5523725 -0.94652373 0.24720137 -0.2073265 0
-0.09068384 -0.46458066 1.5415348 -0.91940647 0.26885742 -0.28706706 0
-0.08749453 -0.46247154 1.5345364 -0.88989878 0.31381255 -0.33106154 0.0012547235
-0.084382094 -0.46064365 1.5284715 -0.85182571 0.34983033 -0.38988665 0.00086193078
-0.081374504 -0.45928347 1.5239584 -0.78946048 0.40533748 -0.46092704 0
-0.078402869 -0.45803809 1.5198262 -0.76943135 0.42385063 -0.47783476 0.0022389053
-0.075489074 -0.45705247 1.5165553 -0.7201466 0.45127556 -0.52700967 0
-0.072592646 -0.45610148 1.5133998 -0.69170284 0.46594897 -0.55175972 0
-0.069722347 -0.45524639 1.5105624 -0.67442399 0.48247409 -0.55890167 0
-0.066869833 -0.45444238 1.507895 -0.65163082 0.49763426 -0.57248354 0
-0.06403397 -0.45368797 1.5053917 -0.63744128 0.51833475 -0.57008564 0.0054555866
-0.061216645 -0.45300364 1.5031211 -0.59038109 0.53196657 -0.60701054 0
-0.05841092 -0.45234567 1.5009377 -0.54646039 0.54881322 -0.6326018 0
-0.05562903 -0.45181686 1.4991829 -0.49910471 0.56956601 -0.65306133 0
-0.052854009 -0.45129246 1.4974432 -0.46167254 0.58434057 -0.66738635 0.00011640351
-0.050097801 -0.45088089 1.4960773 -0.41877177 0.59987104 -0.68175137 0
-0.047349788 -0.45050013 1.494814 -0.38179547 0.6055159 -0.69827127 0
-0.044611219 -0.45016855 1.4937136 -0.34410855 0.61070246 -0.71318424 0.004851691
-0.041880708 -0.44988066 1.4927585 -0.31083038 0.62158054 -0.71904254 0.0072068186
-0.039153881 -0.44959539 1.4918122 -0.27081949 0.62488621 -0.73223901 0
-0.036437944 -0.44940215 1.4911709 -0.24417545 0.64042133 -0.72817498 0.0078493115
-0.033724513 -0.44921154 1.4905384 -0.21681458 0.64467955 -0.73306191 0.0073287743
-0.031014053 -0.44903082 1.4899385 -0.19060901 0.64040506 -0.7440092 0
-0.028307699 -0.44888043 1.4894397 -0.17118944 0.63537019 -0.75299329 0
-0.02560354 -0.4487372 1.4889643 -0.14609423 0.63958156 -0.75471312 0
-0.022902083 -0.44861299 1.4885523 -0.11572388 0.6428979 -0.75715935 0
-0.020203343 -0.44851613 1.4882307 -0.081844367 0.64420569 -0.76046073 0.0031995208
-0.017507896 -0.44847357 1.4880898 -0.045052215 0.64263326 -0.76484823 0
-0.014813789 -0.44845635 1.4880326 -0.0109887 0.65582782 -0.75483048 0
-0.012120074 -0.44844586 1.4879978 0.023745622 0.6521976 -0.75767714 0
-0.0094274394 -0.4484809 1.4881138 0.060081668 0.64579052 -0.76114708 4.4160322e-05
-0.00673474 -0.44853956 1.4883084 0.099532165 0.63855636 -0.76311147 0
-0.0040419418 -0.44866538 1.4887259 0.14186198 0.63443702 -0.75984526 0
-0.0013476312 -0.44879121 1.4891436 0.1800991 0.63892198 -0.74789244 0.010154972
0.0013483707 -0.44897753 1.4897616 0.20469216 0.63139987 -0.74795413 0.0016498326
0.0040466562 -0.4491688 1.4903965 0.23516625 0.63613176 -0.73486954 0.0080336835
0.0067472421 -0.44936031 1.4910319 0.25904319 0.62396526 -0.73726785 0.0025848781
0.0094509665 -0.4495917 1.4917996 0.28821966 0.62488759 -0.7255652 0.0067863096
0.012158865 -0.44987458 1.4927382 0.31528819 0.61746901 -0.72064233 0.0091874711
0.014870536 -0.45016885 1.4937146 0.33268213 0.60206699 -0.72583604 0
0.017586568 -0.45048434 1.4947613 0.35399991 0.59577984 -0.72092336 0
0.020306172 -0.45079482 1.4957919 0.37200019 0.59201586 -0.71493572 0
0.023032004 -0.45115447 1.4969848 0.39933124 0.58503717 -0.70587963 0
0.02576389 -0.45154434 1.4982787 0.43537953 0.57386917 -0.69362742 0.0053014522
0.028500943 -0.45194197 1.499598 0.47045055 0.56493884 -0.67787927 0
0.031251751 -0.45246959 1.5013489 0.5098995 0.54533422 -0.66529173 0.00019375012
0.034009919 -0.4530108 1.5031447 0.56230766 0.52743566 -0.63688439 0.001309835
0.036783524 -0.45366222 1.505306 0.60678017 0.50004482 -0.6178779 0
0.039570607 -0.4543786 1.5076833 0.65122902 0.47614664 -0.59091884 0.00089308026
0.042372175 -0.455158 1.5102695 0.68474156 0.46630037 -0.56008297 0.0065280846
0.045189068 -0.45599771 1.5130556 0.69908983 0.45608789 -0.55068791 0.0024993871
0.048018396 -0.45685983 1.5159161 0.72020727 0.44578266 -0.53158188 0.0033206323
0.050866 -0.457793 1.5190126 0.74208957 0.42162389 -0.52109164 0.0014331209
0.053737357 -0.4588334 1.5224648 0.77679712 0.40281326 -0.48407418 0.0050807502
0.056630112 -0.4599461 1.5261569 0.78976601 0.38627666 -0.47650811 0
0.059563719 -0.4612717 1.5305552 0.83698875 0.34266663 -0.42664903 0.001174054
0.062552959 -0.46289098 1.5359285 0.89856988 0.26806104 -0.34744135 0.0012883067
0.065636307 -0.46503943 1.5430572 0.92697811 0.21934628 -0.30430049 0.00019112833
0.06881965 -0.4676919 1.5518584 0.94192576 0.19936055 -0.27024278 0.0005147442
-0.094312035 -0.46592981 1.5553532 0.99565536 0.092837662 0.0071764095 0
-0.090833038 -0.46255022 1.5440712 -0.91906279 0.26965442 -0.28741971 0
-0.08762642 -0.46038675 1.5368493 -0.89026028 0.31170991 -0.33207434 0.00031917362
-0.084502049 -0.4585278 1.5306442 -0.85489219 0.34721166 -0.38549113 8.996894e-05
-0.081485696 -0.45714885 1.5260409 -0.7970438 0.40206808 -0.45062453 0.0020780778
-0.078509837 -0.45590842 1.5218997 -0.76808316 0.42413366 -0.47974873 0.0030476307
-0.075588964 -0.45490849 1.5185618 -0.72299159 0.44888338 -0.52515417 0
-0.072688505 -0.45396078 1.5153983 -0.68245602 0.46683878 -0.56241906 0
-0.069813482 -0.45310354 1.5125369 -0.67954957 0.4796333 -0.55512553 0
-0.066957094 -0.45230263 1.509863 -0.65153652 0.50008845 -0.5704487 0
-0.064117067 -0.45154828 1.507345 -0.63284534 0.51377696 -0.57925814 0.0023697848
-0.061295785 -0.45086497 1.5050642 -0.59141016 0.53356904 -0.60459751 0
-0.058486268 -0.45020884 1.5028737 -0.54858935 0.5443545 -0.63460845 0.00044566556
-0.055700094 -0.44967687 1.5010982 -0.505274 0.5697155 -0.6481685 0.003956195
-0.052921452 -0.44915444 1.4993539 -0.46358246 0.58611977 -0.664496 0
-0.05016122 -0.44874007 1.4979711 -0.42302945 0.59684336 -0.68178004 0.0020574988
-0.047409337 -0.44835764 1.4966938 -0.38369235 0.61022657 -0.69311154 0
-0.044666968 -0.44802392 1.4955802 -0.34501848 0.6134975 -0.71034002 0.0039786189
-0.041933008 -0.4477371 1.4946226 -0.30746582 0.61985815 -0.7219699 0.00028244552
-0.039202549 -0.4474507 1.4936666 -0.27522457 0.6282863 -0.72767282 0.0054846276
-0.036483265 -0.44725877 1.4930258 -0.24244647 0.63218492 -0.73590887 0.0033931369
-0.033766445 -0.44706875 1.4923917 -0.21826571 0.64314818 -0.73397589 0.0076784408
-0.031052524 -0.44688743 1.4917865 -0.19852614 0.65154612 -0.7321716 0.012861207
-0.028342772 -0.44673729 1.4912852 -0.17335722 0.63756233 -0.75064075 0.00014293064
-0.025635051 -0.44659108 1.4907968 -0.14839156 0.64428067 -0.75025493 0
-0.022930071 -0.4464637 1.4903715 -0.11668441 0.64356971 -0.75644082 0
-0.020228051 -0.44636738 1.4900507 -0.081781447 0.64327079 -0.76125848 0.001710151
-0.017529415 -0.44632798 1.4899189 -0.046189051 0.64654708 -0.76147455 0
-0.014831971 -0.44631004 1.489859 -0.011509799 0.65051138 -0.75940931 0
-0.012134988 -0.44630116 1.4898289 0.022186495 0.65299392 -0.75703818 0
-0.0094389524 -0.44633156 1.4899311 0.058097195 0.64702272 -0.76025414 0
-0.0067429161 -0.44638687 1.4901154 0.097515866 0.63867801 -0.76327002 0
-0.0040468276 -0.44650978 1.4905254 0.14065322 0.63491553 -0.75967026 0
-0.0013492592 -0.44663513 1.490944 0.17469887 0.62961596 -0.75700998 0
0.0013500098 -0.44682354 1.4915729 0.20721506 0.63802779 -0.74160802 0.0059464392
0.0040515792 -0.44701427 1.4922094 0.23314734 0.63076323 -0.74012166 0.0057008872
0.0067554526 -0.44720495 1.4928463 0.25769234 0.62365043 -0.73800731 0.0010574624
0.0094623752 -0.44743073 1.4936001 0.28444481 0.6226514 -0.7289694 0.0013906263
0.01217355 -0.44771272 1.494541 0.30928949 0.61199653 -0.7278738 0.00081909413
0.014888609 -0.44800889 1.4955301 0.33416855 0.61234081 -0.71649855 0.0027538198
0.017607959 -0.44832325 1.4965794 0.353282 0.59874928 -0.71881223 0
0.020330681 -0.44862831 1.4975977 0.37101921 0.59684259 -0.71142364 0
0.023059716 -0.44898438 1.4987862 0.39854777 0.58362782 -0.70748723 0
0.02579497 -0.44937384 1.5000865 0.43076593 0.57011598 -0.69957733 0
0.02853526 -0.44976854 1.5014038 0.47071946 0.56074721 -0.68116498 0
0.031289749 -0.45029885 1.5031743 0.50920832 0.54545134 -0.66572493 0
0.034051321 -0.45083809 1.5049744 0.55946481 0.52147973 -0.64425004 0
0.036827721 -0.45147932 1.5071149 0.60561579 0.50047237 -0.61867356 0
0.039618582 -0.45219719 1.5095112 0.65247315 0.47865033 -0.58751392 0.0016832483
0.042423531 -0.45297283 1.5121002 0.68280387 0.46695474 -0.56190044 0.0047572283
0.045244157 -0.45381159 1.5149002 0.69717675 0.45983994 -0.54999256 0.0016229878
0.048077047 -0.45467055 1.5177677 0.71636218 0.44134617 -0.54040611 0.00066020782
0.050928645 -0.45560402 1.5208837 0.74159318 0.42126527 -0.52208734 0.00072587281
0.05380369 -0.45664066 1.524344 0.77695394 0.4034771 -0.48326895 0.0046525071
0.056700848 -0.45775485 1.5280634 0.79710585 0.38360474 -0.46633658 0.003512399
0.059638329 -0.45907563 1.5324725 0.83573008 0.34326494 -0.42863086 0.00054438552
0.062628843 -0.46066916 1.537792 0.89709359 0.2719717 -0.34821621 0.0013433435
0.065713659 -0.46279126 1.5448756 0.92616951 0.22126481 -0.30537164 0
0.068907917 -0.46547937 1.5538491 0.94055057 0.20255813 -0.27264413 0
-0.094517529 -0.46412367 1.558742 0.97356939 0.21864562 -0.066006511 0
-0.090982765 -0.46051311 1.5466162 -0.92640108 0.26506665 -0.26743379 0.0011231593
-0.08775869 -0.4582957 1.5391692 -0.89537776 0.30565768 -0.32383969 0.0013380605
-0.084625326 -0.45642221 1.5328771 -0.86256164 0.34173542 -0.37310103 0.0022468187
-0.081597179 -0.45500833 1.5281286 -0.79860604 0.39774263 -0.45169586 0.0015095252
-0.078617088 -0.45377278 1.5239789 -0.75672287 0.43016189 -0.49227139 0
-0.075689122 -0.45275891 1.5205741 -0.72551382 0.44643709 -0.52375925 0
-0.072784759 -0.45181513 1.5174048 -0.69682336 0.46648216 -0.54482257 0
-0.069904849 -0.45095527 1.5145164 -0.68370908 0.48123899 -0.54859 0.0023199676
-0.067044593 -0.45015711 1.5118358 -0.64081275 0.49734575 -0.58481294 0
-0.064200379 -0.44940311 1.5093036 -0.6306448 0.51457989 -0.58094293 0.00044404459
-0.061375126 -0.44872093 1.5070124 -0.59194791 0.53362054 -0.60402554 0
-0.058561817 -0.44806647 1.504815 -0.55039001 0.54305834 -0.63415968 0.0014122488
-0.055771343 -0.44753152 1.5030184 -0.51014298 0.57261831 -0.64176506 0.0064598015
-0.052989066 -0.44701082 1.5012696 -0.46996075 0.58373773 -0.662108 0.0036234513
-0.050224841 -0.44659454 1.499871 -0.43064356 0.60089469 -0.67340308 0.008510245
-0.04746902 -0.44620949 1.4985781 -0.38521549 0.60563612 -0.69628584 0
-0.044722855 -0.44587398 1.4974513 -0.34384349 0.61205816 -0.71214914 0
-0.041985437 -0.44558823 1.4964914 -0.31020689 0.62171 -0.71919984 0.0024071913
-0.039251808 -0.44530594 1.4955432 -0.27438879 0.62876946 -0.72757107 0.0020767848
-0.036528707 -0.44511008 1.4948854 -0.24389605 0.63999903 -0.72863972 0.0035183488
-0.033808488 -0.44492066 1.4942497 -0.21501923 0.63600928 -0.74111998 0.00086713402
-0.031091088 -0.44473892 1.4936392 -0.19693755 0.64275867 -0.74032211 0.0076340591
-0.028377961 -0.44458932 1.4931369 -0.17543285 0.64205807 -0.74631405 0
-0.025666658 -0.44443989 1.4926348 -0.14952298 0.64336228 -0.75081807 0
-0.022958128 -0.44430894 1.4921949 -0.11958939 0.64616972 -0.75376594 0.0049926108
-0.020252841 -0.44421411 1.4918767 -0.080928259 0.63740855 -0.76626426 0.00028280294
-0.01755099 -0.44417721 1.4917524 -0.046505179 0.64161032 -0.76561964 0.0034263015
-0.014850203 -0.44415855 1.4916902 -0.01174118 0.64281589 -0.76593077 0.00026379692
-0.012149941 -0.44415098 1.4916646 0.02027045 0.64760137 -0.76170963 0
-0.0094504934 -0.44417715 1.4917526 0.055651203 0.64208919 -0.76460743 0.0029632051
-0.0067511676 -0.44423258 1.4919387 0.095977552 0.63870692 -0.76344073 0
-0.0040517254 -0.44434887 1.4923291 0.1391618 0.63470453 -0.76012117 0
-0.0013508955 -0.44447392 1.4927489 0.17654017 0.63456661 -0.75243515 0.0042110188
0.0013516508 -0.44466382 1.4933872 0.20662703 0.63727868 -0.74241579 0.0054240236
0.0040565133 -0.44485426 1.4940267 0.23404738 0.63355136 -0.73745131 0.0075885467
0.0067636836 -0.4450444 1.4946651 0.25666031 0.62366945 -0.73835081 0
0.0094738118 -0.4452647 1.4954051 0.28566301 0.6198079 -0.7309137 0.0046136761
0.012188269 -0.44554549 1.4963484 0.30932167 0.61508954 -0.72524822 0.001720485
0.014906729 -0.44584376 1.4973497 0.33399209 0.61111128 -0.71762961 0.0034634045
0.017629398 -0.44615704 1.4984016 0.35278016 0.59678751 -0.72068775 0.00041431011
0.020355253 -0.44645643 1.4994075 0.36991724 0.5979476 -0.71106958 0
0.023087496 -0.44680899 1.5005918 0.39799055 0.59395188 -0.69915992 0
0.025826072 -0.4471972 1.5018952 0.43079957 0.58334309 -0.68856561 0
0.028569667 -0.44758993 1.5032141 0.47139552 0.56898195 -0.67382926 0
0.031327836 -0.44812286 1.5050039 0.50912619 0.55527633 -0.65761596 0
0.034092814 -0.44866019 1.5068084 0.55926913 0.5241856 -0.64222068 0
0.036872029 -0.44929123 1.5089281 0.61386776 0.50671047 -0.60531878 0.0067372429
0.039666682 -0.45001054 1.5113437 0.65519601 0.47864133 -0.58448327 0.0036509829
0.042475022 -0.45078212 1.5139353 0.68229878 0.46983087 -0.56011373 0.0040253731
0.045299388 -0.4516201 1.5167496 0.6836642 0.45862442 -0.56768537 0
0.048135854 -0.45247602 1.519624 0.72151345 0.44154578 -0.53334379 0.0036350233
0.050991461 -0.45340961 1.5227593 0.74571544 0.42063826 -0.51669329 0.003161178
0.053870186 -0.4544425 1.5262282 0.77505988 0.39782777 -0.49093315 0.0033319937
0.05677177 -0.455558 1.5299746 0.79262841 0.38236758 -0.47490546 0.00055584201
0.05971314 -0.45687407 1.5343947 0.83615053 0.34184656 -0.42894441 0.00095379166
0.062707953 -0.45846397 1.5397344 0.89045846 0.27592763 -0.36186683 0
0.065791205 -0.46053767 1.5466986 0.92664343 0.22311027 -0.30257863 0.0014105133
0.068996452 -0.46326119 1.5558453 0.94460732 0.19806631 -0.26169965 0.00053247792
-0.094742678 -0.46240103 1.5624552 0.98960161 0.14137129 -0.026507905 0
-0.091132969 -0.45846927 1.5491695 -0.91239971 0.28995782 -0.2888791 0
-0.087891363 -0.45619839 1.541496 -0.89639187 0.30247176 -0.3240256 0.00011203739
-0.084748954 -0.45431036 1.5351164 -0.86643755 0.33878753 -0.36675465 0.0012894927
-0.081708968 -0.45286191 1.5302222 -0.80170184 0.39573598 -0.4479588 0.0014200414
-0.078724645 -0.45163125 1.5260638 -0.74173534 0.43705246 -0.50873756 0
-0.075789548 -0.45060366 1.5225918 -0.73017764 0.44579905 -0.5177874 0
-0.072881401 -0.44966489 1.5194197 -0.71015137 0.46858028 -0.52546895 0.0044915699
-0.069996454 -0.44880116 1.5165011 -0.68007809 0.48163173 -0.5527429 0
-0.067132302 -0.4480058 1.5138136 -0.6546666 0.49743605 -0.56918269 0
-0.064283825 -0.4472518 1.5112655 -0.6171363 0.50925094 -0.5998385 0
-0.061454676 -0.44657117 1.5089657 -0.59341371 0.52901095 -0.60663629 0.00076106464
-0.058637545 -0.44591874 1.5067611 -0.55140412 0.54498255 -0.63162297 0.00066250947
-0.055842765 -0.44538063 1.5049431 -0.50954163 0.57325089 -0.64167792 0.0044215703
-0.053056851 -0.44486189 1.5031902 -0.46950844 0.57867825 -0.66685337 0.0013851111
-0.050288633 -0.44444346 1.5017761 -0.42536524 0.59305924 -0.68362647 0.00023526463
-0.04752887 -0.44405609 1.5004673 -0.3871322 0.60965008 -0.69170469 0
-0.044778883 -0.44371879 1.4993274 -0.34497166 0.61381447 -0.71008897 0
-0.042038001 -0.44343394 1.4983652 -0.3098166 0.62128365 -0.71973628 0.00044999621
-0.039301261 -0.44315642 1.4974276 -0.27410302 0.62798262 -0.72835803 0.00037989541
-0.036574282 -0.44295609 1.4967506 -0.24166037 0.63329852 -0.73520964 0
-0.033850633 -0.4427672 1.4961122 -0.21611151 0.64112002 -0.73638374 0
-0.031129746 -0.44258499 1.4954964 -0.19446135 0.63464499 -0.74793756 0
-0.028413236 -0.44243592 1.4949927 -0.17664266 0.63597327 -0.75122261 0
-0.025698379 -0.44228405 1.4944794 -0.15141864 0.64423925 -0.74968541 0
-0.022986252 -0.44214898 1.4940228 -0.11969356 0.64240581 -0.75695986 0.0033083686
-0.020277832 -0.44205856 1.4937177 -0.084473073 0.65120828 -0.75418311 0.0094787842
-0.017572615 -0.44202101 1.4935907 -0.046384692 0.64531666 -0.76250565 0
-0.014868478 -0.44200176 1.4935259 -0.01270834 0.64903581 -0.76065171 0
-0.012164932 -0.44199556 1.493505 0.02068652 0.64485532 -0.76402467 0
-0.0094620623 -0.4420175 1.4935788 0.053315651 0.64248341 -0.76444262 0
-0.0067594377 -0.44207293 1.4937663 0.094526879 0.64847797 -0.75534165 0
-0.0040566335 -0.44218272 1.4941373 0.13894477 0.64183813 -0.75414735 0.00041153646
-0.0013525309 -0.44230723 1.4945579 0.18090139 0.64421505 -0.74314308 0.013365507
0.0013532881 -0.44249588 1.4951954 0.20573075 0.63227791 -0.74692667 0.0056688529
0.0040614568 -0.44268918 1.4958484 0.23505843 0.63141829 -0.7389577 0.010526269
0.0067719333 -0.44287854 1.4964883 0.26395544 0.62957263 -0.7307297 0.013097481
0.0094852727 -0.44309348 1.4972146 0.28860462 0.6202842 -0.72935241 0.010047186
0.012203025 -0.44337326 1.4981596 0.31521463 0.6222865 -0.71651882 0.011419779
0.014924888 -0.44367343 1.4991741 0.3384237 0.61444932 -0.712686 0.011003365
0.017650882 -0.44398522 1.5002276 0.35419747 0.60325795 -0.71457964 0.0034311551
0.020379884 -0.44427937 1.5012219 0.36867505 0.59581882 -0.71349746 0
0.023115342 -0.44462854 1.5024018 0.39723146 0.59182662 -0.70139033 0
0.025857253 -0.44501531 1.5037086 0.43097648 0.58238953 -0.68926179 0
0.028604193 -0.44540668 1.5050309 0.47196198 0.56303042 -0.67841625 0
0.031366006 -0.44594145 1.5068381 0.51234436 0.54922867 -0.66019017 0
0.03413441 -0.44647682 1.508647 0.5586651 0.52893257 -0.6388455 0
0.036916442 -0.44709802 1.5107455 0.6096611 0.50511843 -0.61087531 0.0040796883
0.039714888 -0.4478184 1.5131805 0.65193099 0.48100838 -0.58618844 0.0010888535
0.042526625 -0.44858629 1.5157747 0.68222421 0.46410668 -0.56495595 0.0040009646
0.045354746 -0.44942331 1.5186032 0.69852227 0.45845085 -0.54944474 0.0019590894
0.048194796 -0.4502762 1.521485 0.72259885 0.44215801 -0.53136337 0.0039930712
0.051054403 -0.45120966 1.5246392 0.74636912 0.42499107 -0.51216757 0.0035963964
0.053936854 -0.4522388 1.5281168 0.76995969 0.39961341 -0.49746481 0
0.056842856 -0.45335555 1.5318904 0.79259926 0.38400531 -0.47363091 0.00046910936
0.059788123 -0.45466697 1.5363216 0.83557868 0.34444678 -0.42797735 0.00065983192
0.062787466 -0.4562549 1.5416868 0.88873607 0.2767221 -0.36547646 0
0.065868922 -0.45827878 1.5485258 0.9262138 0.22364376 -0.30349845 0.0013393182
0.069085196 -0.46103722 1.5578465 0.94292641 0.19998465 -0.26626283 0
-0.0949011 -0.46034139 1.5650679 0.96879524 0.22761302 -0.098122984 0
-0.091283664 -0.45641863 1.5517311 -0.91857249 0.28191531 -0.27703506 0.00039138721
-0.08802443 -0.45409459 1.5438298 -0.90042794 0.29752973 -0.31734145 0.00073767343
-0.084872954 -0.45219231 1.5373626 -0.86777228 0.33517802 -0.36691546 0.00019921259
-0.081821047 -0.45070952 1.5323212 -0.80731386 0.39278796 -0.44041109 0.0025744701
-0.078832485 -0.44948399 1.5281544 -0.74811625 0.43421221 -0.50177872 0
-0.075890243 -0.44844276 1.5246146 -0.74012935 0.44229758 -0.50653869 0.00037898254
-0.07297831 -0.44750893 1.5214398 -0.711263 0.46821305 -0.52429152 0.0041825715
-0.070088305 -0.44664156 1.518491 -0.68148845 0.48234367 -0.55038005 0.00030343089
-0.067220241 -0.44584894 1.5157964 -0.63191885 0.49983022 -0.59232444 0
-0.064367384 -0.44509405 1.5132298 -0.62861973 0.51265061 -0.58483028 0
-0.061534427 -0.44441569 1.5109239 -0.60051745 0.53036618 -0.59840655 0.0052670985
-0.058713488 -0.44376522 1.5087122 -0.55176675 0.54791641 -0.62876147 0
-0.05591438 -0.44322437 1.506873 -0.50597185 0.56654847 -0.65039641 0
-0.053124808 -0.44270742 1.5051155 -0.47537217 0.58585364 -0.65635109 0.0054950686
-0.050352581 -0.44228679 1.5036857 -0.43010166 0.59536487 -0.67864072 0.0027688954
-0.047588855 -0.44189721 1.5023612 -0.38958523 0.60218662 -0.69684625 0.0012037581
-0.044835053 -0.44155812 1.5012082 -0.35158595 0.61967272 -0.70170718 0.0054724896
-0.042090692 -0.44127423 1.5002432 -0.31521112 0.62456435 -0.71453571 0.0062403162
-0.039350837 -0.44100165 1.4993165 -0.27533984 0.6251713 -0.73030734 0.0014079994
-0.036619999 -0.44079727 1.4986215 -0.24551849 0.640571 -0.72759157 0.0040083672
-0.03389287 -0.44060838 1.4979794 -0.21726088 0.63939589 -0.73754376 0
-0.031168507 -0.44042569 1.4973583 -0.1967285 0.63796407 -0.74451303 0
-0.028448537 -0.44027627 1.4968503 -0.17846549 0.64129269 -0.74625319 0
-0.025730185 -0.44012296 1.4963291 -0.1519088 0.64049041 -0.75279194 0
-0.023014447 -0.43998361 1.4958556 -0.12148035 0.64443123 -0.75495082 0.0056909337
-0.020302886 -0.4398976 1.495563 -0.085270651 0.65395051 -0.75171649 0.010464026
-0.017594295 -0.43985945 1.4954331 -0.047460072 0.64924449 -0.75909764 0.0036573417
-0.014886798 -0.43983978 1.4953661 -0.012526345 0.64673597 -0.76261109 0
-0.012179956 -0.43983489 1.4953496 0.019520991 0.65378892 -0.75642514 0
-0.0094736591 -0.43985242 1.4954093 0.051450279 0.64656442 -0.76112241 0.00045126959
-0.0067677284 -0.43990797 1.4955986 0.09187682 0.64283967 -0.76047075 0
-0.0040615564 -0.44001138 1.4959499 0.13733809 0.64043188 -0.75563568 0.0014582459
-0.0013541728 -0.44013542 1.4963715 0.18062046 0.64760286 -0.74026126 0.013052616
0.0013549272 -0.44032252 1.4970074 0.20924014 0.64145899 -0.73807108 0.011868344
0.0040664151 -0.44051874 1.4976746 0.23186749 0.62825632 -0.74265158 0.0052108043
0.0067802034 -0.44070739 1.4983163 0.26053619 0.6269328 -0.73421806 0.0077172727
0.0094967615 -0.44091684 1.499028 0.28867942 0.62460214 -0.72562826 0.010105278
0.012217816 -0.44119555 1.4999757 0.31239483 0.61393219 -0.72491157 0.0089026252
0.014943093 -0.44149768 1.5010028 0.33432403 0.61193633 -0.71677154 0.006420413
0.01767225 -0.44180381 1.5020438 0.35090294 0.59734821 -0.72113955 0
0.020404575 -0.44209707 1.5030408 0.36779377 0.59828597 -0.71188593 0
0.02314326 -0.44244277 1.5042162 0.39688039 0.59147936 -0.70188183 0
0.025888504 -0.44282812 1.5055259 0.43137479 0.57605094 -0.69432056 0
0.028639304 -0.44322574 1.5068783 0.47183082 0.56397676 -0.6777212 0
0.031404287 -0.44375491 1.5086766 0.51234967 0.54625386 -0.66264963 0
0.034176111 -0.44428813 1.5104899 0.55770856 0.52705282 -0.6412304 0
0.036960959 -0.4448992 1.5125675 0.60357642 0.50216156 -0.61929733 0
0.039763384 -0.44562298 1.515028 0.64751464 0.48270193 -0.58968097 0
0.042578354 -0.44638503 1.5176187 0.67794967 0.4635469 -0.57053351 0.00057860126
0.045410246 -0.4472211 1.5204613 0.69544297 0.4523088 -0.55836898 0
0.048253879 -0.44807076 1.5233501 0.7043854 0.43876624 -0.55796546 0
0.051117532 -0.44900435 1.5265241 0.73464173 0.42249069 -0.53085124 0
0.054003686 -0.45002979 1.5300103 0.77853489 0.40029365 -0.483372 0.0049487189
0.056912795 -0.45113713 1.5337751 0.78717089 0.38351735 -0.48298696 0
0.059862465 -0.45244807 1.5382318 0.83528072 0.34333134 -0.42945269 0.00023553045
0.06286718 -0.45404005 1.5436442 0.89097643 0.2785852 -0.35854059 0.00024011143
0.065948755 -0.45602787 1.5504024 0.92427987 0.22061226 -0.3115077 0.00041762114
0.069174163 -0.45880747 1.5598526 0.94524091 0.19585754 -0.2610735 0
-0.095060065 -0.45827496 1.5676893 -0.95743614 0.20720457 -0.20095327 0
-0.091445424 -0.45441371 1.5544809 -0.92412132 0.27417395 -0.26613599 0.00054168951
-0.088157922 -0.45198458 1.5461711 -0.90447581 0.29269716 -0.31024498 0.0010172492
-0.084997319 -0.45006818 1.5396152 -0.87058693 0.33294973 -0.36224705 0
-0.081933439 -0.44855112 1.534426 -0.80690241 0.39125568 -0.44252411 0
-0.078940645 -0.44733059 1.5302508 -0.76067138 0.42798844 -0.4880625 0
-0.075991206 -0.44627607 1.5266429 -0.74402767 0.4402993 -0.50255293 0.0029261971
-0.073075466 -0.44534713 1.5234654 -0.7091887 0.46560818 -0.52939636 0.0017403549
-0.070180394 -0.44447619 1.5204861 -0.68734705 0.48289615 -0.54255444 0.0038228468
-0.067308418 -0.44368654 1.5177848 -0.63890821 0.50082535 -0.58392662 0
-0.064451151 -0.44293076 1.5151992 -0.61447608 0.51234597 -0.59993398 0
-0.061614387 -0.44225478 1.5128872 -0.60065961 0.52338904 -0.60437739 0
-0.058789618 -0.44160622 1.5106685 -0.558043 0.55245066 -0.61918199 0.0044858512
-0.055986173 -0.44106239 1.5088079 -0.51984096 0.56814528 -0.6379469 0.0074055693
-0.053192943 -0.44054735 1.5070457 -0.48079112 0.58503354 -0.65312755 0.0086626764
-0.050416693 -0.44012469 1.5056002 -0.43043619 0.59465539 -0.67905056 0.00098135415
-0.047649115 -0.43973392 1.5042636 -0.38957864 0.60588574 -0.69363612 0
-0.044891365 -0.43939191 1.5030935 -0.35023645 0.6158461 -0.70573926 0.0023271246
-0.042143799 -0.43911195 1.5021358 -0.31350735 0.61653858 -0.72221416 0.0020417557
-0.039400544 -0.4388414 1.5012105 -0.27561677 0.62149882 -0.73333114 0
-0.036665831 -0.43863297 1.5004971 -0.24582247 0.63540846 -0.73200238 0.0031199998
-0.033935271 -0.43844473 1.4998533 -0.21843167 0.63710439 -0.73917902 0
-0.031207364 -0.43826103 1.4992249 -0.19786173 0.63566494 -0.74617749 0
-0.028483782 -0.43810898 1.4987047 -0.17915189 0.64024639 -0.74698675 0
-0.02576207 -0.43795657 1.4981833 -0.15332606 0.64429444 -0.74925017 0
-0.023042709 -0.4378131 1.4976925 -0.12031755 0.64175302 -0.75741452 0
-0.02032803 -0.43773198 1.4974153 -0.08776392 0.65236592 -0.75280559 0.0074611627
-0.017616026 -0.43769252 1.4972804 -0.04730124 0.6462124 -0.76169026 0
-0.014905161 -0.43767214 1.4972105 -0.012898063 0.64486092 -0.76419103 0
-0.01219502 -0.4376688 1.4971989 0.017200682 0.64589638 -0.76323134 0
-0.0094852857 -0.43768203 1.4972445 0.048883826 0.64381558 -0.76361752 0
-0.0067760386 -0.43773782 1.4974349 0.089585744 0.64401007 -0.75975347 0
-0.0040664887 -0.43783486 1.4977667 0.13523126 0.6395337 -0.75677544 0.0012616528
-0.0013558185 -0.43795836 1.4981894 0.17846119 0.6432389 -0.74457723 0.011225665
0.0013565719 -0.43814391 1.4988244 0.20680687 0.63806677 -0.74168837 0.0085690673
0.0040713865 -0.43834305 1.4995054 0.229809 0.62361598 -0.74718869 0.0024625056
0.0067884959 -0.43853104 1.5001485 0.26260701 0.63328385 -0.72800356 0.010684904
0.0095082819 -0.43873501 1.5008461 0.28177109 0.61785012 -0.73407507 0
0.012232646 -0.43901259 1.5017962 0.30689004 0.60800725 -0.7322197 0.0017599263
0.014961343 -0.43931663 1.502836 0.33004767 0.60545188 -0.72422141 0.0014871003
0.017693674 -0.43961734 1.5038648 0.35009971 0.60155582 -0.71802557 0
0.02042933 -0.43990946 1.5048642 0.3717227 0.60064304 -0.70784903 0.0058120312
0.02317124 -0.44025171 1.5060349 0.39261994 0.59474313 -0.70151991 0
0.025919834 -0.44063562 1.5073479 0.43601096 0.57615584 -0.69133115 0.0045715356
0.028674575 -0.44104069 1.5087337 0.47517577 0.56303304 -0.67616701 0.0025559317
0.031442642 -0.44156277 1.5105197 0.51182753 0.54443109 -0.66455048 0
0.034217909 -0.44209421 1.5123376 0.55795473 0.52540344 -0.64236891 0.0010961314
0.037005588 -0.44269526 1.5143939 0.60350782 0.5074473 -0.61504108 0
0.039812073 -0.44342309 1.5168834 0.65591478 0.48293859 -0.58012593 0.003911138
0.042630225 -0.4441784 1.5194671 0.6831488 0.4647167 -0.56333488 0.0040912731
0.045465887 -0.44501358 1.5223243 0.6896438 0.4565351 -0.56210953 0
0.048313119 -0.44586009 1.5252202 0.71071601 0.44028997 -0.54865974 0
0.051180802 -0.44679368 1.5284138 0.73450887 0.42132702 -0.53195882 0
0.054070674 -0.44781524 1.5319083 0.76710469 0.3952201 -0.50532317 0
0.056982525 -0.44891024 1.5356541 0.78160787 0.38476092 -0.49096647 0
0.059936002 -0.45021611 1.5401213 0.83822012 0.33993548 -0.4264164 0.0015260546
0.062947102 -0.45181966 1.5456066 0.8872056 0.27786079 -0.36832002 0
0.066029228 -0.45377457 1.5522945 0.92383015 0.21805912 -0.31462374 0.00017436148
0.069263361 -0.456572 1.5618639 0.94606364 0.19419657 -0.25932842 0
-0.095237643 -0.4562881 1.5706182 0.98431635 0.17050377 -0.045275301 0
-0.091611519 -0.45242023 1.5573044 -0.92686456 0.2650556 -0.26583394 0.00022846437
-0.088291802 -0.44986802 1.5485191 -0.9059093 0.28843999 -0.31004938 0
-0.085122041 -0.44793761 1.5418744 -0.87687939 0.32724443 -0.35212737 0.0017270886
-0.082046151 -0.44638705 1.5365369 -0.81074858 0.38824657 -0.43812242 0
-0.079049066 -0.44517148 1.5323528 -0.75470549 0.42828232 -0.49698472 0
-0.076092415 -0.44410348 1.5286764 -0.74557585 0.43942481 -0.50102139 0.0028510829
-0.073172897 -0.44317961 1.5254967 -0.71099806 0.46469218 -0.52777171 0.0018631715
-0.070272736 -0.44230527 1.5224868 -0.6855678 0.48255074 -0.54510701 0.0018385852
-0.067396812 -0.44151831 1.5197781 -0.63729012 0.49658448 -0.58929205 0
-0.064535454 -0.44076383 1.5171809 -0.6080308 0.51055074 -0.60797739 0
-0.061694562 -0.44008833 1.5148559 -0.60156804 0.52512431 -0.60196382 0
-0.05886595 -0.43944156 1.5126299 -0.5540874 0.54347181 -0.63057548 0
-0.056058429 -0.43889701 1.5107551 -0.51258522 0.56295598 -0.64833397 0
-0.05326125 -0.43838173 1.508981 -0.46532163 0.58054841 -0.66816121 0
-0.050480969 -0.43795711 1.5075198 -0.43152615 0.59203506 -0.68064636 0
-0.047709815 -0.43756777 1.5061796 -0.39174995 0.60335988 -0.69461411 0
-0.04494781 -0.43722039 1.5049837 -0.35387293 0.6164642 -0.70338166 0.005509065
-0.042197131 -0.4369452 1.5040369 -0.31188321 0.61645752 -0.72298616 0.0025629038
-0.039450385 -0.43667567 1.5031092 -0.2798039 0.62528634 -0.7285099 0.0049590878
-0.036711775 -0.4364633 1.5023775 -0.25241506 0.63844746 -0.72709805 0.011496281
-0.03397778 -0.43627566 1.5017321 -0.22667184 0.64703882 -0.72798395 0.011077235
-0.031246226 -0.43608975 1.5010918 -0.20675682 0.64671367 -0.73417503 0.013330018
-0.028519116 -0.43593627 1.5005636 -0.17957129 0.63306344 -0.75298393 0
-0.025794033 -0.4357847 1.5000422 -0.15316822 0.63775891 -0.75485301 0
-0.023071129 -0.43563873 1.4995396 -0.1209961 0.64284772 -0.75637734 0
-0.0203533 -0.43556237 1.4992768 -0.087649144 0.65152645 -0.75354552 0.0068850452
-0.017637813 -0.43552041 1.4991322 -0.047628153 0.64339095 -0.76405472 0.00013211141
-0.014923571 -0.43549943 1.4990599 -0.014574579 0.65114188 -0.75881606 0.0033222183
-0.01221012 -0.43549734 1.4990528 0.015481283 0.6477561 -0.76169044 0.0032983457
-0.0094969394 -0.43550634 1.499084 0.049890835 0.64785492 -0.76012814 0.0047202418
-0.0067843711 -0.43556225 1.499276 0.08745946 0.64074922 -0.76275247 0.0027263123
-0.004071435 -0.43565279 1.499588 0.13673526 0.64667654 -0.75040853 0.0097907763
-0.0013574688 -0.43577588 1.5000118 0.17968543 0.65037173 -0.73805809 0.014197975
0.0013582204 -0.43596017 1.5006454 0.20493084 0.63858652 -0.7417618 0.0055882428
0.0040763561 -0.43616045 1.5013351 0.23275459 0.62998044 -0.7409116 0.0076299091
0.0067968089 -0.43634927 1.5019853 0.25630644 0.61970693 -0.74180198 0.0012991215
0.0095198285 -0.4365477 1.5026686 0.28409922 0.62173128 -0.72988886 0.0043583913
0.012247508 -0.4368245 1.5036211 0.30666366 0.61159784 -0.7293185 0.0025231191
0.014979638 -0.43713027 1.5046736 0.32947999 0.60437131 -0.72538143 0.0023415408
0.017715147 -0.43742549 1.50569 0.3492434 0.60671991 -0.71408689 0
0.02045414 -0.43771654 1.5066917 0.36698034 0.59723067 -0.71319067 0
0.023199288 -0.4380554 1.507858 0.3930327 0.58772415 -0.70718151 0
0.025951238 -0.43843776 1.5091742 0.43242785 0.57233447 -0.69673485 0
0.028709924 -0.43885016 1.5105939 0.47661877 0.56455159 -0.67388141 0.0039466429
0.031480841 -0.43936169 1.5123546 0.50958997 0.54729909 -0.66391397 0
0.034259811 -0.43989486 1.5141897 0.55615312 0.528687 -0.64123607 0
0.037050322 -0.44048595 1.5162245 0.60305685 0.50489736 -0.6175769 0
0.039860882 -0.44121766 1.5187432 0.65696663 0.48530018 -0.57695639 0.0048222849
0.042682201 -0.44196635 1.52132 0.68233907 0.46830031 -0.56134498 0.0032219412
0.045521654 -0.44280064 1.5241919 0.69383246 0.45497319 -0.55820787 0
0.048372492 -0.44364387 1.5270946 0.72277677 0.44121474 -0.53190529 0.0026603614
0.051244237 -0.44457746 1.5303078 0.73948836 0.42244586 -0.52411509 0
0.054136969 -0.44558793 1.5337864 0.76836699 0.39634493 -0.50251657 0
0.057052679 -0.44667995 1.537545 0.79175681 0.38152888 -0.47702932 0
0.060009725 -0.44797885 1.542016 0.83625317 0.33832476 -0.43152863 6.9576257e-05
0.063027233 -0.44959348 1.547574 0.89009702 0.27618167 -0.3625617 0.0011398784
0.066108659 -0.45150727 1.5541618 0.92361504 0.21646123 -0.31635386 0
0.069352791 -0.45433092 1.5638808 0.94845545 0.19341545 -0.25104329 7.2156414e-05
-0.095446549 -0.45443976 1.5740632 0.99445581 0.10508469 0.0038443063 0
-0.091774277 -0.45040029 1.5600711 -0.92990106 0.25387812 -0.26613879 0
-0.088426098 -0.44774508 1.5508745 -0.90832865 0.28215465 -0.30875182 0.00057403132
-0.085247129 -0.44580084 1.5441401 -0.8719818 0.32804346 -0.36336669 0
-0.082159176 -0.44421691 1.5386536 -0.81453621 0.38519663 -0.43376753 0
-0.079157807 -0.44300634 1.5344607 -0.75445175 0.43173093 -0.49437937 0
-0.076193929 -0.44192505 1.5307155 -0.74335551 0.43986002 -0.50393039 6.6212982e-05
-0.073270574 -0.44100636 1.5275331 -0.71286088 0.46097767 -0.52851582 0.0022996729
-0.07036531 -0.44012845 1.5244924 -0.68450135 0.478587 -0.54992032 0.00092041859
-0.067485437 -0.43934453 1.5217767 -0.6401704 0.49647957 -0.58625066 0
-0.064620085 -0.43859202 1.5191708 -0.62049538 0.50980407 -0.59589034 0
-0.061774939 -0.43791616 1.5168295 -0.60271221 0.5292365 -0.59719902 0
-0.058942474 -0.43727142 1.5145963 -0.55557716 0.54606938 -0.62701052 0
-0.056131214 -0.43672872 1.5127165 -0.51402366 0.5652917 -0.64515507 0
-0.053329736 -0.43621051 1.5109215 -0.46741953 0.58131135 -0.66603005 0
-0.050545409 -0.43578398 1.5094442 -0.43757483 0.59173083 -0.6770398 0
-0.047770657 -0.43539608 1.5081005 -0.38922033 0.6097452 -0.69044793 0
-0.045004401 -0.43504328 1.5068785 -0.35102636 0.61188352 -0.70878702 0
-0.042250596 -0.43477309 1.5059426 -0.31216645 0.62003964 -0.71979368 0.0016955388
-0.039500337 -0.43450469 1.5050128 -0.28208244 0.62739509 -0.72581333 0.0062224469
-0.036757842 -0.43428802 1.5042626 -0.24917074 0.63630879 -0.73008573 0.0026179734
-0.03402039 -0.43410128 1.5036156 -0.2243828 0.6399138 -0.73495764 0.0032649739
-0.031285174 -0.43391293 1.5029631 -0.20403109 0.64038795 -0.74045563 0.005073519
-0.028554592 -0.43375909 1.5024303 -0.1822513 0.63827455 -0.74792379 0.0029122687
-0.025826076 -0.43360752 1.5019057 -0.15429844 0.64190298 -0.75110096 0
-0.023099933 -0.43346494 1.5014117 -0.1216782 0.64707184 -0.752657 0
-0.020378636 -0.43338746 1.5011432 -0.086117387 0.64899385 -0.7559039 0
-0.017659793 -0.43334627 1.5010004 -0.048390392 0.64318162 -0.76418316 0
-0.014942027 -0.43332112 1.5009136 -0.01721102 0.64404368 -0.76479512 0
-0.012225259 -0.43332046 1.5009114 0.013801267 0.64922339 -0.7604726 0.010557259
-0.0095086209 -0.43332541 1.5009282 0.047256928 0.64922994 -0.75912267 0
-0.0067927232 -0.43338126 1.5011219 0.085636109 0.64389992 -0.76030219 0.0039198878
-0.0040763915 -0.43346566 1.5014139 0.13637933 0.6546554 -0.74352336 0.012793466
-0.0013591219 -0.43358821 1.5018388 0.17444396 0.64479762 -0.74418098 0.0059595527
0.0013598725 -0.43377084 1.5024712 0.2010788 0.63300043 -0.74758118 0
0.0040813182 -0.43397045 1.5031624 0.23045807 0.62686265 -0.74426627 0.0041505336
0.0068051405 -0.43416214 1.5038264 0.25865316 0.62080532 -0.74006701 0.0056678988
0.0095314011 -0.43435538 1.5044956 0.28188053 0.6175583 -0.73427868 0.0016896725
0.012262426 -0.43463165 1.5054524 0.30791676 0.61385578 -0.72688949 0.0053959489
0.014997976 -0.43493849 1.5065157 0.33112839 0.6064254 -0.72291231 0.0061230138
0.017736671 -0.43522829 1.5075195 0.35145789 0.60433263 -0.71502405 0.0044519412
0.02047901 -0.43551826 1.5085237 0.36675143 0.59566289 -0.71461821 0
0.02322741 -0.43585366 1.5096855 0.39685184 0.58957165 -0.70350116 0.0045092469
0.025982717 -0.43623465 1.5110049 0.43538553 0.5743854 -0.69319606 0.0030619092
0.02874537 -0.43665433 1.512459 0.47226864 0.55846483 -0.68196726 0
0.031518877 -0.43715173 1.5141816 0.51487732 0.55041134 -0.65722799 0.0052221674
0.034301825 -0.43769002 1.5160462 0.5563429 0.5254367 -0.64373821 0.00057413278
0.037095167 -0.43827134 1.5180597 0.60279131 0.50352371 -0.61895609 0
0.039909832 -0.43900692 1.5206077 0.65191096 0.48432353 -0.58347476 0.0012882036
0.042734377 -0.43974948 1.5231795 0.6835261 0.46534875 -0.56235456 0.0042370479
0.045577571 -0.44058216 1.5260638 0.68093991 0.45727471 -0.57203197 0
0.048432015 -0.44142228 1.5289738 0.72826493 0.43989673 -0.52547216 0.0065573761
0.05130782 -0.44235581 1.5322068 0.74675328 0.42183843 -0.51420999 0.0031850464
0.054203339 -0.44335467 1.5356669 0.7719664 0.3979184 -0.49571046 0.00043741413
0.057123974 -0.44445151 1.5394661 0.79346973 0.38103899 -0.47456816 0.00095164397
0.060083635 -0.44573599 1.543915 0.84263015 0.33421719 -0.42222422 0.0015624693
0.063101038 -0.44731545 1.5493863 0.89066362 0.27499694 -0.36207035 0.0019500616
0.066185057 -0.44921279 1.555958 0.92343354 0.21381332 -0.31867597 0
0.069442458 -0.45208383 1.5659027 -0.99951935 0.018954441 0.024533937 0
-0.09566173 -0.4526087 1.5776118 -0.99807084 0.0029015269 -0.062016789 0
-0.091916919 -0.44827211 1.5624958 -0.93501043 0.2450242 -0.25635651 0.00083431072
-0.088560805 -0.44561571 1.553237 -0.90955168 0.27681947 -0.30997872 0
-0.085372582 -0.44365782 1.5464127 -0.87651235 0.32406068 -0.35596466 0
-0.082276464 -0.4420619 1.5408502 -0.82465458 0.38263029 -0.41657993 0.0023538023
-0.079266846 -0.44083524 1.5365744 -0.77271003 0.42265081 -0.47358781 0.00082079653
-0.076295704 -0.43974108 1.5327601 -0.74304301 0.44070819 -0.50364995 0
-0.073368534 -0.43882716 1.5295751 -0.70432836 0.46614292 -0.53538054 0
-0.070458136 -0.43794602 1.5265036 -0.66882193 0.48388022 -0.56439102 0
-0.067574307 -0.4371649 1.5237805 -0.65742916 0.49702504 -0.56635064 0
-0.06470494 -0.43641466 1.5211656 -0.63008064 0.5091083 -0.58635068 0
-0.061855532 -0.43573827 1.5188084 -0.60215783 0.5255115 -0.60103542 0
-0.059019201 -0.43509549 1.5165677 -0.55729187 0.54995698 -0.62207156 0
-0.056204192 -0.43455493 1.5146834 -0.51569718 0.56730241 -0.64204711 0
-0.053398393 -0.43403363 1.5128665 -0.47150379 0.58252931 -0.66207528 0.0014495981
-0.050610006 -0.43360525 1.5113735 -0.44069847 0.59453654 -0.67254078 0.0018096431
-0.047831662 -0.43321878 1.5100263 -0.3905271 0.60968 -0.6897673 0
-0.045061398 -0.43286324 1.5087869 -0.3521727 0.61200309 -0.70811486 0
-0.042304203 -0.43259543 1.5078533 -0.31240249 0.61934119 -0.72029245 0
-0.039550424 -0.43232787 1.5069208 -0.28128141 0.62824684 -0.72538722 0.0015364942
-0.03680402 -0.43210733 1.5061523 -0.24970508 0.63174707 -0.73385483 0.0012543673
-0.034063116 -0.4319213 1.5055037 -0.22479521 0.64054996 -0.73427707 0
-0.031324252 -0.43173105 1.5048404 -0.20645633 0.64301133 -0.73750407 0.0064466158
-0.028590219 -0.43157738 1.5043049 -0.18648025 0.64728564 -0.73908484 0.0087672872
-0.025858169 -0.4314245 1.5037719 -0.15422958 0.63851893 -0.75399387 0.00031958133
-0.02312891 -0.43128765 1.5032952 -0.12358808 0.64661312 -0.75274003 0.0060423585
-0.020404035 -0.431207 1.5030138 -0.085078798 0.64063913 -0.76311409 0
-0.017681859 -0.43116736 1.5028758 -0.051624753 0.64740831 -0.7603929 0.0046168328
-0.014960526 -0.43113756 1.5027721 -0.018710736 0.65043277 -0.75933331 0.0044034384
-0.012240435 -0.43113834 1.5027745 0.011672221 0.64673883 -0.76262224 0
-0.0095203947 -0.43114173 1.5027864 0.044599473 0.64075816 -0.76644629 0
-0.0068010958 -0.43119496 1.502972 0.082470238 0.63891399 -0.76484478 0.0022380042
-0.004081401 -0.43127728 1.5032589 0.12845664 0.63768965 -0.759507 0
-0.0013607787 -0.43139523 1.5036701 0.17141142 0.63915759 -0.74973041 0.0040294258
0.0013615303 -0.43157637 1.5043015 0.19985442 0.63011229 -0.75034434 0
0.0040862914 -0.43177521 1.5049944 0.22816886 0.62699431 -0.74486047 0
0.0068134926 -0.43196958 1.5056722 0.25586697 0.62259114 -0.73953527 0.00037435503
0.0095430035 -0.43215752 1.5063269 0.2801964 0.61282873 -0.7388714 0.00013257246
0.012277447 -0.43243569 1.5072966 0.30460298 0.6105144 -0.73108763 0.0018318421
0.015016219 -0.43273741 1.5083483 0.32891789 0.60176069 -0.72780287 0.0050179539
0.017758252 -0.43302578 1.5093536 0.35041237 0.60365832 -0.716106 0.0042890888
0.02050394 -0.43331462 1.5103602 0.36654371 0.5921365 -0.71764898 5.5883338e-05
0.023255592 -0.43364662 1.5115175 0.39346501 0.59189993 -0.70344841 0
0.0260143 -0.43402648 1.5128416 0.43286976 0.57428473 -0.69485295 0
0.028780898 -0.43445307 1.5143285 0.47187358 0.5634926 -0.67809391 0
0.031556994 -0.43493634 1.516013 0.50982499 0.54961443 -0.66181749 0.0014746633
0.034343936 -0.43547982 1.5179074 0.55576968 0.52845353 -0.64176083 0.0006974464
0.037140571 -0.43605661 1.519918 0.60914093 0.50245851 -0.61358196 0.0040507549
0.039958879 -0.43679082 1.5224769 0.66168183 0.48618096 -0.57079345 0.0078397645
0.042786717 -0.43752766 1.5250452 0.67345971 0.46888018 -0.57149225 0
0.045633614 -0.43835831 1.5279405 0.701056 0.45599189 -0.54826277 0.0031140468
0.048491687 -0.43919516 1.5308576 0.73072249 0.43937403 -0.52248943 0.0084524201
0.051371455 -0.44012749 1.5341072 0.74317938 0.41787621 -0.52255517 0.00033967767
0.054269888 -0.44111592 1.5375524 0.77663565 0.40080735 -0.48599437 0.003775388
0.057195447 -0.44221753 1.5413926 0.79338342 0.38261974 -0.47343931 0.00073699129
0.060158223 -0.44349122 1.5458317 0.84004259 0.33527812 -0.42651737 0.00083214411
0.063174941 -0.44503158 1.5512009 0.88790405 0.27590883 -0.36810422 0.0014297375
0.066261634 -0.44691294 1.5577583 0.90323573 0.2502777 -0.34860626 0.00090491585
0.069537759 -0.44986618 1.5680518 -0.99523264 0.087233208 -0.043616604 0
-0.095897965 -0.45086384 1.5815078 0.9955501 0.09301848 0.015084093 0
-0.092059985 -0.44613725 1.5649278 -0.93612331 0.24281557 -0.25438902 0.00071873714
-0.088695906 -0.4434799 1.5556066 -0.91370142 0.27157784 -0.3023167 0
-0.085498422 -0.44150853 1.548692 -0.87961078 0.32408381 -0.34821624 0.00050431897
-0.082397476 -0.43991911 1.5431163 -0.82673031 0.38146183 -0.41352615 0.0020725136
-0.079376191 -0.43865824 1.5386939 -0.7749961 0.42206764 -0.47036165 0.0015808523
-0.076397739 -0.43755102 1.5348101 -0.7487281 0.43801332 -0.49754465 0.00071959931
-0.073466741 -0.43664223 1.5316224 -0.70437044 0.46446186 -0.53678441 0
-0.070551202 -0.43575776 1.5285199 -0.6852867 0.48356751 -0.54455912 0.001260008
-0.067663521 -0.43498015 1.5257922 -0.63753128 0.4977093 -0.58808106 0
-0.064790025 -0.43423152 1.5231659 -0.60664791 0.51026314 -0.6095981 0
-0.061936334 -0.43355477 1.5207922 -0.60784471 0.52413738 -0.59649372 0.0031225628
-0.059096128 -0.43291396 1.5185447 -0.56273991 0.54475176 -0.62174696 0
-0.056277357 -0.43237537 1.5166551 -0.51722437 0.56314421 -0.64447469 0
-0.053467236 -0.43185127 1.514817 -0.47704646 0.58208549 -0.65848541 0.0047678612
-0.050674781 -0.43142104 1.5133078 -0.43847179 0.59516466 -0.6734401 0.0017876681
-0.047892824 -0.431036 1.5119573 -0.39557019 0.60654986 -0.68965316 0.0034180591
-0.045118742 -0.43067962 1.5107069 -0.35339814 0.61119229 -0.70820463 0
-0.042357944 -0.43041211 1.5097687 -0.31468907 0.61889613 -0.71967942 0
-0.039600637 -0.43014562 1.508834 -0.28220806 0.63131291 -0.72235912 0.00056597847
-0.036850318 -0.42992121 1.5080469 -0.25090325 0.6335603 -0.73188043 0
-0.034105867 -0.42973495 1.5073934 -0.22856671 0.63603598 -0.73703158 0.0039376966
-0.031363506 -0.42954481 1.5067263 -0.20372681 0.64072794 -0.74024528 0
-0.028625935 -0.42939019 1.5061841 -0.1872216 0.65014917 -0.73637903 0.0094202142
-0.025890339 -0.42923594 1.5056429 -0.15458164 0.64180398 -0.75112724 0.001087099
-0.023157964 -0.42910498 1.5051835 -0.12538385 0.65274453 -0.74713016 0.011770203
-0.020429496 -0.42902118 1.5048894 -0.086506687 0.64617962 -0.75826681 0.0020768121
-0.017703984 -0.42898309 1.5047562 -0.05183813 0.6470598 -0.76067501 0
-0.014979108 -0.42894959 1.5046384 -0.019944245 0.64804882 -0.7613377 0
-0.012255648 -0.42895067 1.5046424 0.0099394927 0.64662164 -0.7627461 0
-0.0095322262 -0.42895401 1.5046542 0.042084873 0.639467 -0.76766592 0.00059803837
-0.0068094898 -0.42900324 1.5048268 0.085466892 0.65195173 -0.75342846 0.011955656
-0.0040864395 -0.42908531 1.5051143 0.12586725 0.63775665 -0.75988412 0
-0.0013624402 -0.42919683 1.5055059 0.16881742 0.63527536 -0.75360864 0.0022679183
0.0013631899 -0.42937636 1.5061357 0.19807103 0.62346089 -0.7563495 0
0.0040912759 -0.42957455 1.5068305 0.23185906 0.63162208 -0.73979384 0.0074044294
0.0068218634 -0.4297719 1.5075225 0.25531325 0.61904454 -0.74269706 0
0.0095546953 -0.42995715 1.5081725 0.27962571 0.61191189 -0.73984677 0
