# .PCD v0.7 - Point Cloud Data file format
VERSION 0.7
FIELDS x y z rgba
SIZE 4 4 4 4
TYPE F F F U
COUNT 1 1 1 1
WIDTH 835
HEIGHT 1
VIEWPOINT 0 0 0 1 0 0 0
POINTS 835
DATA ascii
0.55245686 -0.52390581 1.5773337 14549506
0.55491507 -0.52353144 1.5762067 14680578
0.55776811 -0.52353144 1.5762067 14680578
0.56062102 -0.52353138 1.5762064 14615042
0.56347394 -0.52353132 1.5762061 14483970
0.56632692 -0.52353114 1.576206 14287362
0.56917983 -0.52353108 1.5762056 14090497
0.57203275 -0.5235309 1.5762053 13893889
0.57488573 -0.52353084 1.5762051 13697281
0.57773858 -0.52353078 1.5762048 13500673
0.58059156 -0.52353072 1.5762045 13304065
0.55245399 -0.52104807 1.5773257 14418434
0.55295336 -0.51883775 1.5706344 15204866
0.55579633 -0.51883781 1.5706344 15270402
0.55863923 -0.51883781 1.5706345 15335938
0.56148219 -0.51883781 1.5706345 15335938
0.56432509 -0.51883781 1.5706344 15335938
0.567168 -0.51883775 1.5706345 15270402
0.57001084 -0.51883763 1.570634 15139330
0.57285374 -0.51883745 1.5706339 14942722
0.57569653 -0.51883733 1.5706334 14746114
0.57853937 -0.51883733 1.5706332 14549506
0.58138216 -0.51883721 1.5706328 14352641
0.55246335 -0.52089381 1.5855465 13979703
0.55245113 -0.51819038 1.5773177 14352898
0.55243909 -0.51551485 1.5691738 15270402
0.55383837 -0.51417708 1.5651016 15794690
0.55667126 -0.51417708 1.5651014 15860226
0.55950415 -0.51417708 1.5651014 15925762
0.5623371 -0.51417702 1.5651014 15991298
0.56516999 -0.51417702 1.5651014 15991298
0.56800294 -0.51417702 1.5651014 15991298
0.57083589 -0.51417702 1.5651014 15991298
0.57366878 -0.51417696 1.5651011 15925762
0.57650155 -0.51417691 1.565101 15794690
0.57933444 -0.51417667 1.5651007 15598082
0.58216727 -0.51417673 1.5651007 15401474
0.55246049 -0.51802129 1.5855384 13314333
0.55244821 -0.5153327 1.5773094 14221826
0.55243629 -0.51267201 1.5691657 15204866
0.55242425 -0.51003855 1.5611055 16057091
0.55471718 -0.50954908 1.5596074 16319235
0.55754012 -0.50954908 1.5596075 16450307
0.56036311 -0.50954908 1.5596074 16515843
0.56318611 -0.50954908 1.5596074 16646915
0.5660091 -0.50954908 1.5596075 16646915
0.56883204 -0.50954908 1.5596073 16712451
0.57165504 -0.50954908 1.5596073 16712451
0.57447797 -0.50954914 1.5596073 16712451
0.57730097 -0.50954908 1.5596073 16646658
0.58012396 -0.50954908 1.5596073 16581122
0.55245763 -0.51514858 1.5855303 13041921
0.55244535 -0.51247513 1.5773015 14090754
0.55243337 -0.50982904 1.5691576 15073794
0.55242151 -0.50721014 1.5610975 15991555
0.55277669 -0.5049535 1.5541515 16646915
0.5555898 -0.5049535 1.5541515 16712451
0.55840284 -0.5049535 1.5541515 16712451
0.56121594 -0.50495344 1.5541514 16712451
0.56402904 -0.50495344 1.5541515 16712451
0.56684214 -0.5049535 1.5541515 16712451
0.56965536 -0.50495344 1.5541515 16712451
0.57246846 -0.5049535 1.5541515 16712451
0.5752815 -0.5049535 1.5541515 16712451
0.5780946 -0.50495344 1.5541515 16712451
0.5809077 -0.50495356 1.5541514 16712451
0.55245477 -0.51227593 1.5855219 12845313
0.55244261 -0.50961745 1.5772934 13959682
0.55243057 -0.5069862 1.5691495 14942722
0.55241871 -0.50438195 1.5610895 15860483
0.55240679 -0.50180441 1.5531118 16646915
0.55365306 -0.50038999 1.5487342 16712451
0.55645633 -0.50038999 1.5487342 16712451
0.55925953 -0.50038993 1.5487339 16712451
0.56206286 -0.50038993 1.5487339 16712451
0.56486619 -0.50038987 1.5487338 16712451
0.56766945 -0.50038987 1.5487339 16712451
0.57047278 -0.50038993 1.5487339 16712451
0.5732761 -0.50038993 1.5487339 16712451
0.57607937 -0.50038993 1.5487339 16712451
0.57888269 -0.50038993 1.5487339 16712451
0.58168602 -0.50038987 1.5487339 16712451
0.55246425 -0.51207495 1.5938287 12736064
0.55245197 -0.50940341 1.5855138 12648705
0.55243981 -0.50675964 1.5772851 13763074
0.55242777 -0.5041433 1.5691416 14811650
0.55241585 -0.50155377 1.5610816 15729411
0.55240399 -0.4989906 1.5531039 16515843
0.55239236 -0.49645358 1.5452075 16712708
0.55452329 -0.49585807 1.543354 16712708
0.55731684 -0.49585813 1.543354 16712708
0.56011033 -0.49585807 1.5433539 16712708
0.56290394 -0.49585807 1.5433539 16712708
0.56569749 -0.49585813 1.543354 16712708
0.56849104 -0.49585813 1.543354 16712708
0.57128459 -0.49585807 1.5433539 16712708
0.5740782 -0.49585813 1.5433538 16712708
0.57687169 -0.49585813 1.5433538 16712708
0.5796653 -0.49585819 1.5433539 16712708
0.55246133 -0.5091874 1.5938205 12070691
0.55244917 -0.50653106 1.5855057 12452097
0.55243695 -0.5039022 1.5772772 13566466
0.55242491 -0.50130051 1.5691335 14615042
0.55241299 -0.49872553 1.5610737 15532803
0.55240124 -0.4961769 1.5530963 16319235
0.55238956 -0.49365425 1.5451998 16712708
0.5526036 -0.49135762 1.5380111 16712708
0.5553875 -0.49135768 1.5380111 16712708
0.55817133 -0.49135768 1.5380111 16712708
0.56095523 -0.49135768 1.5380111 16712708
0.56373912 -0.49135768 1.5380111 16712708
0.56652308 -0.49135768 1.5380111 16712708
0.56930697 -0.49135774 1.5380111 16712708
0.57209086 -0.49135768 1.5380111 16712708
0.57487476 -0.49135768 1.5380111 16712708
0.57765859 -0.49135768 1.5380111 16712708
0.58044249 -0.49135762 1.5380111 16712708
0.55245858 -0.50629991 1.5938123 11010305
0.55244619 -0.50365859 1.5854974 12189953
0.55243409 -0.50104457 1.5772688 13304322
0.55242217 -0.49845779 1.5691255 14418434
0.55241019 -0.49589735 1.5610657 15336195
0.55239844 -0.49336326 1.5530883 16122627
0.55238682 -0.49085498 1.545192 16712708
0.55237526 -0.48837185 1.5373757 16712708
0.55347162 -0.48688829 1.5327053 16712708
0.55624592 -0.48688823 1.5327053 16712708
0.55902016 -0.48688835 1.5327053 16712708
0.5617944 -0.48688823 1.5327053 16712708
0.5645687 -0.48688835 1.5327053 16712708
0.567343 -0.48688835 1.5327053 16712708
0.57011724 -0.48688835 1.5327053 16712708
0.57289153 -0.48688835 1.5327053 16712708
0.57566583 -0.48688835 1.5327053 16712708
0.57844013 -0.48688829 1.5327053 16712708
0.58121443 -0.48688835 1.5327053 16712708
0.5524556 -0.50341231 1.5938039 10682625
0.55244339 -0.50078619 1.5854893 11862273
0.55243123 -0.49818707 1.577261 13042178
0.5524193 -0.49561501 1.5691175 14156290
0.55240732 -0.49306935 1.5610578 15074051
0.55239558 -0.49054962 1.5530803 15860483
0.55238402 -0.48805547 1.5451841 16450564
0.55237257 -0.48558676 1.5373681 16712708
0.55236107 -0.48314273 1.5296302 16712708
0.55433351 -0.48244959 1.5274358 16712708
0.55709827 -0.48244965 1.5274358 16712708
0.55986297 -0.48244965 1.5274358 16712708
0.56262767 -0.48244959 1.5274358 16712708
0.56539243 -0.48244965 1.5274358 16712965
0.5681572 -0.48244965 1.5274358 16712965
0.57092196 -0.48244959 1.5274358 16712965
0.57368672 -0.48244965 1.5274358 16712965
0.57645142 -0.48244953 1.5274358 16712965
0.57921618 -0.48244959 1.5274358 16712965
0.58198094 -0.48244959 1.5274358 16712965
0.55245274 -0.50052482 1.5937955 10354945
0.55244052 -0.49791366 1.5854812 11534593
0.55242836 -0.49532968 1.5772527 12714498
0.55241644 -0.49277234 1.5691094 13828610
0.55240464 -0.49024117 1.5610499 14811907
0.55239284 -0.48773605 1.5530726 15598339
0.55238122 -0.4852562 1.5451764 16188420
0.55236977 -0.48280162 1.5373602 16581636
0.55235839 -0.48037165 1.5296227 16712708
0.55243427 -0.47804141 1.5222027 16712708
0.55518955 -0.47804135 1.5222025 16712708
0.55794477 -0.47804135 1.5222025 16712708
0.56070006 -0.47804135 1.5222025 16712965
0.56345528 -0.47804135 1.5222025 16712965
0.56621057 -0.47804135 1.5222025 16712965
0.56896585 -0.47804135 1.5222025 16712965
0.5717212 -0.47804141 1.5222025 16712965
0.57447648 -0.47804135 1.5222025 16712965
0.57723171 -0.47804135 1.5222025 16712965
0.57998699 -0.47804129 1.5222025 16712965
0.55246228 -0.50026083 1.6021893 12543311
0.55244994 -0.49763745 1.5937873 9961472
0.55243754 -0.49504131 1.5854728 11206913
0.55242562 -0.49247217 1.5772446 12386818
0.55241364 -0.48992968 1.5691016 13500930
0.55240178 -0.48741305 1.5610418 14484227
0.5523901 -0.48492229 1.5530647 15270659
0.55237848 -0.48245698 1.5451686 15860740
0.55236697 -0.48001629 1.5373524 16253956
0.55235565 -0.47760051 1.529615 16516100
0.55234444 -0.47520876 1.521955 16712708
0.55329376 -0.47366315 1.5170048 16712708
0.55603963 -0.47366315 1.5170048 16712708
0.55878544 -0.47366321 1.5170048 16712708
0.56153131 -0.47366315 1.5170047 16712965
0.56427723 -0.47366321 1.5170048 16712965
0.56702304 -0.47366315 1.5170047 16712965
0.56976897 -0.47366309 1.5170047 16712965
0.57251483 -0.47366315 1.5170047 16712965
0.57526064 -0.47366321 1.5170047 16712965
0.57800651 -0.47366315 1.5170047 16712965
0.58075237 -0.47366315 1.5170047 16712965
0.55245936 -0.4973582 1.6021811 8323072
0.55244696 -0.49474996 1.5937788 9502720
0.55243492 -0.49216902 1.5854647 10748161
0.55242276 -0.48961467 1.5772364 11993602
0.55241078 -0.48708695 1.5690935 13173250
0.55239898 -0.48458511 1.561034 14156547
0.55238718 -0.48210871 1.5530567 14877443
0.55237567 -0.47965771 1.545161 15467524
0.55236423 -0.47723138 1.5373448 15926276
0.55235285 -0.47482938 1.5296073 16188420
0.55234158 -0.47245157 1.5219474 16385028
0.55233055 -0.47009742 1.514364 16450564
0.55414748 -0.46931481 1.5118427 16647172
0.55688399 -0.46931475 1.5118426 16712708
0.55962044 -0.46931481 1.5118426 16712965
0.56235701 -0.46931469 1.5118425 16712965
0.56509352 -0.46931475 1.5118426 16712965
0.56783003 -0.46931469 1.5118425 16712965
0.57056665 -0.46931475 1.5118426 16712965
0.57330316 -0.46931475 1.5118426 16712965
0.57603961 -0.46931475 1.5118426 16712965
0.57877618 -0.46931481 1.5118427 16712965
0.58151263 -0.46931481 1.5118425 16712965
0.55245644 -0.49445558 1.6021726 7864320
0.55244416 -0.49186254 1.5937707 9043968
0.55243194 -0.48929667 1.5854564 10354945
0.5524199 -0.4867574 1.5772285 11600386
0.55240792 -0.48424429 1.5690854 12714498
0.55239612 -0.48175704 1.561026 13697795
0.55238444 -0.47929513 1.553049 14484227
0.55237281 -0.47685832 1.545153 15074051
0.55236143 -0.47444636 1.5373371 15533060
0.5523501 -0.47205848 1.5295999 15795204
0.5523389 -0.46969438 1.5219398 15991812
0.55232775 -0.46735406 1.5143564 16057348
0.55231673 -0.46503675 1.5068479 16122884
0.55499542 -0.46499604 1.5067155 16385028
0.55772263 -0.4649961 1.5067155 16712708
0.56044984 -0.46499604 1.5067155 16712965
0.56317711 -0.46499598 1.5067155 16712965
0.56590432 -0.46499598 1.5067154 16712965
0.56863159 -0.46499604 1.5067155 16712965
0.57135886 -0.46499598 1.5067155 16712965
0.57408613 -0.46499604 1.5067155 16712965
0.57681334 -0.46499598 1.5067154 16712965
0.57954061 -0.4649961 1.5067155 16712965
0.58226782 -0.46499604 1.5067155 16712965
0.55245352 -0.49155301 1.6021645 7405568
0.5524413 -0.48897523 1.5937625 8585216
0.55242914 -0.48642433 1.5854481 9830657
0.55241704 -0.48390001 1.5772204 11141377
0.55240518 -0.4814018 1.5690775 12255746
0.55239332 -0.47892904 1.561018 13239043
0.55238163 -0.47648168 1.553041 14025475
0.55237013 -0.47405922 1.5451453 14615299
0.55235863 -0.47166121 1.5373293 15074308
0.55234736 -0.4692874 1.5295922 15401988
0.55233616 -0.46693742 1.5219324 15598596
0.55232501 -0.46461064 1.5143489 15729668
0.55231404 -0.46230716 1.5068407 15795204
0.55457938 -0.46192223 1.5055861 15991812
0.55730289 -0.46192074 1.5055815 16253956
0.56002641 -0.46191943 1.5055771 16516100
0.56274998 -0.46191818 1.5055728 16712965
0.5654735 -0.4619168 1.5055683 16712965
0.56819713 -0.46191537 1.5055639 16712965
0.57092053 -0.461914 1.5055593 16712965
0.57364404 -0.46191269 1.505555 16712965
0.5763675 -0.46191138 1.5055506 16712965
0.57909089 -0.46190983 1.5055461 16712965
0.58181429 -0.46190864 1.5055418 16712965
0.55246311 -0.49124002 1.610647 11693400
0.55245066 -0.48865038 1.6021559 6881280
0.55243832 -0.48608786 1.5937541 8060928
0.55242628 -0.48355216 1.5854403 9306369
0.55241418 -0.48104274 1.5772121 10617089
0.55240232 -0.47855908 1.5690694 11796994
0.55239046 -0.47610104 1.5610102 12780291
0.55237877 -0.4736681 1.5530332 13566723
0.55236739 -0.47126007 1.5451375 14156547
0.55235595 -0.4688763 1.5373217 14615556
0.55234456 -0.46651638 1.5295844 14943236
0.55233335 -0.46418029 1.5219247 15139844
0.55232227 -0.46186733 1.5143412 15336452
0.55252486 -0.45975494 1.5074157 15664132
0.55525184 -0.45975381 1.5074115 15795204
0.55797851 -0.45975232 1.5074067 15926276
0.56070542 -0.45975107 1.5074024 16188420
0.56343228 -0.4597497 1.507398 16450564
0.56615907 -0.45974827 1.5073935 16712965
0.56888586 -0.45974696 1.5073891 16712965
0.57161266 -0.45974553 1.5073847 16712965
0.57433945 -0.45974427 1.5073804 16712965
0.57706618 -0.45974284 1.5073757 16712965
0.57979292 -0.45974147 1.5073714 16712965
0.55246019 -0.4883222 1.6106384 9189165
0.55244786 -0.48574787 1.6021478 6684672
0.55243552 -0.48320067 1.5937459 7471104
0.55242336 -0.48067987 1.5854318 8782081
0.55241132 -0.47818542 1.5772042 10027265
0.55239946 -0.47571653 1.5690613 11207170
0.55238777 -0.47327328 1.5610023 12255746
0.55237615 -0.47085476 1.5530255 13042435
0.55236453 -0.4684608 1.5451297 13697795
0.5523532 -0.46609122 1.5373139 14156804
0.55234188 -0.46374553 1.529577 14484484
0.55233067 -0.46142322 1.5219173 14746628
0.55231953 -0.45912397 1.5143337 15205380
0.55319548 -0.45758122 1.5092454 15467524
0.55592567 -0.45757997 1.5092411 15533060
0.5586558 -0.45757866 1.5092366 15664132
0.56138599 -0.45757717 1.509232 15860740
0.56411618 -0.45757586 1.5092278 16122884
0.56684625 -0.45757449 1.5092232 16385028
0.56957644 -0.45757318 1.5092187 16647429
0.57230651 -0.45757186 1.5092143 16712965
0.57503653 -0.45757043 1.5092099 16712965
0.57776654 -0.45756912 1.5092053 16712965
0.58049661 -0.45756775 1.5092008 16712965
0.55245727 -0.48540431 1.6106298 6684672
0.55244493 -0.48284531 1.6021392 6684672
0.55243278 -0.48031342 1.5937377 6946816
0.5524205 -0.47780758 1.5854236 8192257
0.55240858 -0.47532821 1.5771961 9502977
0.55239671 -0.4728741 1.5690534 10682882
0.55238491 -0.47044522 1.5609941 11665922
0.55237323 -0.46804124 1.5530176 12518147
0.55236179 -0.46566182 1.5451221 13173507
0.5523504 -0.46330619 1.5373061 13632259
0.55233908 -0.46097451 1.5295694 14025732
0.55232781 -0.45866609 1.5219097 14550020
0.55231673 -0.45638061 1.5143261 15008772
0.55386776 -0.45540214 1.5110794 15205380
0.55660135 -0.45540082 1.511075 15336452
0.55933481 -0.45539951 1.5110708 15401988
0.56206828 -0.45539826 1.5110663 15467524
0.56480175 -0.45539683 1.5110619 15729668
0.56753516 -0.45539546 1.5110574 15991812
0.57026857 -0.45539415 1.5110528 16319492
0.57300204 -0.45539284 1.5110483 16581893
0.57573539 -0.45539141 1.5110439 16712965
0.5784688 -0.45539016 1.5110396 16712965
0.58120215 -0.45538884 1.5110351 16712965
0.55245441 -0.48248649 1.6106217 6684672
0.55244201 -0.47994292 1.6021309 6684672
0.55242985 -0.47742611 1.5937294 6684672
0.5524177 -0.47493553 1.5854155 7602176
0.55240577 -0.47247082 1.577188 8913153
0.55239385 -0.47003156 1.5690453 10093058
0.55238211 -0.46761733 1.5609863 11076098
0.55237043 -0.4652279 1.5530096 11928323
0.55235898 -0.46286261 1.5451143 12583683
0.55234766 -0.46052134 1.5372986 13107971
0.55233628 -0.45820343 1.5295613 13829124
0.55232513 -0.45590901 1.5219018 14418948
0.55231398 -0.4536373 1.5143186 14877700
0.55454165 -0.45321792 1.5129182 15008772
0.55727851 -0.45321649 1.5129137 15074308
0.56001532 -0.45321512 1.5129094 15139844
0.56275225 -0.45321393 1.512905 15270916
0.56548899 -0.45321262 1.5129006 15336452
0.56822574 -0.45321107 1.5128958 15598596
0.57096243 -0.45320982 1.5128914 15926276
0.57369924 -0.45320845 1.512887 16188420
0.57643586 -0.45320725 1.5128827 16450821
0.57917255 -0.45320582 1.5128782 16712965
0.5819093 -0.45320451 1.5128736 16712965
0.55246395 -0.48212349 1.6191939 11694685
0.55245155 -0.47956848 1.6106129 6684672
0.55243915 -0.47704041 1.6021225 6684672
0.55242693 -0.47453886 1.5937209 6684672
0.55241483 -0.4720633 1.5854073 7012352
0.55240285 -0.46961355 1.5771799 8323329
0.55239099 -0.46718907 1.5690372 9437698
0.55237925 -0.46478951 1.5609784 10486274
0.55236769 -0.46241444 1.5530019 11338499
0.55235612 -0.46006358 1.5451064 11993859
0.5523448 -0.45773643 1.5372907 12911363
0.55233353 -0.45543271 1.5295538 13632516
0.55232227 -0.45315194 1.5218941 14222340
0.552477 -0.4510293 1.5147655 14681092
0.55521727 -0.45102805 1.5147612 14746628
0.55795741 -0.45102686 1.5147569 14812164
0.56069762 -0.45102555 1.5147524 14943236
0.5634377 -0.45102423 1.5147479 15008772
0.56617785 -0.45102286 1.5147436 15074308
0.56891799 -0.45102155 1.514739 15205380
0.57165802 -0.45102024 1.5147345 15467524
0.5743981 -0.45101887 1.5147302 15729668
0.57713813 -0.4510175 1.5147257 16057348
0.57987809 -0.45101619 1.514721 16319749
0.55246109 -0.47919023 1.6191854 9189679
0.55244857 -0.47665066 1.6106045 6684672
0.55243629 -0.47413802 1.6021143 6684672
0.55242407 -0.47165173 1.5937128 6684672
0.55241197 -0.46919131 1.5853989 6684672
0.55239999 -0.46675646 1.5771718 7667969
0.55238825 -0.46434677 1.5690293 8847617
0.55237645 -0.46196169 1.5609703 9896450
0.55236489 -0.45960104 1.5529938 10748418
0.55235338 -0.45726442 1.5450985 11797251
0.55234188 -0.45495152 1.5372828 12714755
0.55233067 -0.45266175 1.529546 13435908
0.55231947 -0.45039499 1.5218865 14025732
0.55315095 -0.44883442 1.5166131 14418948
0.55589449 -0.44883299 1.5166087 14484484
0.55863798 -0.4488318 1.5166043 14550020
0.5613814 -0.44883049 1.5165997 14615556
0.56412494 -0.44882917 1.5165956 14746628
0.56686842 -0.4488278 1.5165911 14812164
0.56961191 -0.44882655 1.5165867 14877700
0.57235533 -0.4488253 1.5165821 15008772
0.57509863 -0.44882387 1.5165776 15270916
0.57784212 -0.44882268 1.5165732 15598596
0.58058542 -0.44882125 1.5165687 15860740
0.55245823 -0.47625673 1.6191769 6684672
0.55244571 -0.47373295 1.6105962 6684672
0.55243337 -0.47123557 1.6021056 6684672
0.55242121 -0.46876454 1.5937046 6684672
0.55240911 -0.4663192 1.585391 6684672
0.55239713 -0.46389925 1.5771636 7078145
0.55238545 -0.46150434 1.5690212 8257793
0.55237365 -0.45913392 1.5609627 9306626
0.55236197 -0.45678771 1.5529857 10551810
0.55235052 -0.45446545 1.5450906 11600643
0.55233908 -0.45216668 1.5372751 12518147
0.55232787 -0.44989091 1.5295382 13304579
0.55231673 -0.44763798 1.5218787 13829124
0.55382645 -0.44663399 1.5184653 14091268
0.55657339 -0.44663274 1.5184609 14222340
0.55932015 -0.44663143 1.5184565 14287876
0.56206703 -0.44663 1.5184519 14353412
0.56481385 -0.44662875 1.5184475 14418948
0.56756067 -0.44662756 1.5184431 14484484
0.57030749 -0.44662631 1.5184388 14550020
0.57305437 -0.44662488 1.5184343 14615556
0.57580101 -0.44662356 1.5184298 14812164
0.57854778 -0.44662219 1.5184251 15074308
0.58129448 -0.44662094 1.5184207 15336452
0.55245525 -0.47332358 1.6191683 6684672
0.55244285 -0.47081524 1.6105878 6684672
0.55243051 -0.46833336 1.6020975 6684672
0.55241823 -0.46587741 1.5936962 6684672
0.55240625 -0.46344709 1.5853827 6684672
0.55239433 -0.46104217 1.5771556 6684672
0.55238259 -0.45866191 1.5690131 7602433
0.55237073 -0.4563061 1.5609542 9044482
0.55235916 -0.45397443 1.552978 10355202
0.55234772 -0.45166636 1.5450826 11469571
0.55233634 -0.44938171 1.5372672 12321539
0.55232513 -0.44712007 1.5295305 13107971
0.55231392 -0.44488108 1.5218711 13698052
0.55450356 -0.44442815 1.5203217 13829124
0.55725384 -0.44442695 1.5203173 13894660
0.560004 -0.44442558 1.520313 13960196
0.56275421 -0.44442427 1.5203086 14025732
0.56550443 -0.44442302 1.5203042 14091268
0.56825465 -0.44442171 1.5202997 14156804
0.57100481 -0.44442034 1.5202951 14222340
0.57375503 -0.44441909 1.5202907 14287876
0.57650506 -0.44441783 1.5202863 14353412
0.57925516 -0.44441652 1.5202818 14615556
0.58200526 -0.44441515 1.5202773 14812164
0.55245233 -0.4703902 1.6191599 6684672
0.55243987 -0.46789736 1.610579 6684672
0.55242759 -0.46543092 1.602089 6684672
0.55241555 -0.46299034 1.593688 6684672
0.55240339 -0.46057498 1.5853744 6684672
0.55239153 -0.45818496 1.5771475 6684672
0.55237967 -0.45581949 1.569005 7405825
0.55236799 -0.45347834 1.5609462 8847874
0.55235636 -0.45116103 1.5529698 10158594
0.55234486 -0.44886738 1.5450747 11272963
0.55233353 -0.44659698 1.5372595 12124931
0.55232227 -0.44434929 1.5295228 12911363
0.55242872 -0.44221824 1.5221875 13435908
0.5551824 -0.44221699 1.5221829 13501444
0.55793595 -0.44221574 1.5221785 13566980
0.56068957 -0.44221443 1.5221742 13632516
0.56344318 -0.4422133 1.5221698 13698052
0.56619674 -0.44221187 1.5221653 13763588
0.5689503 -0.44221061 1.5221608 13829124
0.57170385 -0.44220924 1.5221565 13894660
0.57445741 -0.44220799 1.5221519 13960196
0.57721084 -0.44220686 1.5221475 14025732
0.57996428 -0.44220531 1.5221429 14025732
0.55246192 -0.46996075 1.6278236 9852486
0.55244941 -0.46745694 1.6191511 6684672
0.55243707 -0.46497977 1.6105709 6684672
0.55242473 -0.46252865 1.6020808 6684672
0.55241263 -0.46010327 1.5936798 6684672
0.55240059 -0.45770311 1.5853664 6684672
0.55238861 -0.45532793 1.5771391 6684672
0.55237675 -0.45297718 1.5689967 7209217
0.55236506 -0.45065069 1.5609381 8651266
0.5523535 -0.44834775 1.5529618 9961986
0.55234206 -0.44606841 1.5450668 11076355
0.55233073 -0.44381207 1.5372516 11928323
0.55231953 -0.44157857 1.529515 12714755
0.55310589 -0.44000161 1.5240531 13173764
0.5558629 -0.44000041 1.5240487 13239300
0.55861986 -0.43999922 1.5240444 13304836
0.56137681 -0.43999779 1.5240399 13304836
0.56413382 -0.4399966 1.5240355 13370372
0.56689066 -0.43999523 1.5240309 13435908
0.56964761 -0.43999404 1.5240264 13501444
0.57240456 -0.43999273 1.5240221 13566980
0.5751614 -0.43999141 1.5240176 13566980
0.57791835 -0.4399901 1.5240132 13632516
0.58067518 -0.43998885 1.5240086 13698052
0.55245906 -0.46701187 1.6278152 6684672
0.55244648 -0.46452373 1.6191427 6684672
0.55243409 -0.46206212 1.6105623 6684672
0.55242187 -0.45962638 1.6020724 6684672
0.55240965 -0.45721608 1.5936713 6684672
0.55239761 -0.45483112 1.5853579 6684672
0.55238569 -0.45247084 1.5771308 6684672
0.55237383 -0.45013493 1.5689887 7078145
0.5523622 -0.44782281 1.56093 8520194
0.55235064 -0.44553453 1.552954 9765378
0.5523392 -0.44326955 1.545059 10879747
0.55232787 -0.44102734 1.5372438 11731715
0.55231667 -0.43880773 1.5295072 12518147
0.55378461 -0.43777972 1.5259235 12845827
0.55654508 -0.43777835 1.5259191 12911363
0.55930537 -0.43777704 1.5259144 12911620
0.56206566 -0.43777573 1.52591 12977156
0.56482607 -0.43777454 1.5259056 13042692
0.56758636 -0.43777323 1.5259011 13108228
0.57034665 -0.43777198 1.5258968 13108228
0.573107 -0.43777061 1.5258923 13173764
0.57586724 -0.43776947 1.5258878 13239300
0.57862741 -0.4377681 1.5258832 13239300
0.5813877 -0.43776691 1.5258789 13304836
0.55245608 -0.46406287 1.6278064 6684672
0.55244356 -0.46159059 1.6191342 6684672
0.55243117 -0.45914447 1.6105537 6684672
0.55241895 -0.45672429 1.6020641 6684672
0.55240679 -0.45432913 1.5936631 6684672
0.55239475 -0.45195907 1.5853497 6684672
0.55238277 -0.44961375 1.5771224 6684672
0.55237103 -0.44729251 1.5689805 6881537
0.55235934 -0.44499528 1.560922 8323586
0.55234784 -0.44272137 1.552946 9568770
0.55233645 -0.44047058 1.5450511 10683139
0.55232513 -0.43824267 1.537236 11535107
0.55231386 -0.43603712 1.5294995 12321539
0.55446506 -0.43555218 1.5277984 12518147
0.55722886 -0.43555087 1.5277941 12518147
0.55999249 -0.43554956 1.5277894 12583683
0.56275624 -0.43554837 1.5277851 12649219
0.56552005 -0.43554699 1.5277805 12649219
0.56828374 -0.43554574 1.527776 12715012
0.57104748 -0.43554449 1.5277716 12780548
0.57381117 -0.4355433 1.5277672 12780548
0.57657474 -0.43554193 1.5277625 12846084
0.57933837 -0.43554074 1.5277581 12846084
0.582102 -0.43553925 1.5277536 12846084
0.55245316 -0.46111399 1.6277976 6684672
0.5524407 -0.45865738 1.6191256 6684672
0.55242831 -0.45622689 1.6105455 6684672
0.55241609 -0.45382196 1.6020555 6684672
0.55240387 -0.45144218 1.5936545 6684672
0.55239183 -0.44908714 1.5853412 6684672
0.55237985 -0.44675672 1.5771143 6684672
0.55236822 -0.44445026 1.5689725 6684672
0.55235642 -0.44216758 1.560914 8126978
0.55234492 -0.43990815 1.552938 9372162
0.55233359 -0.43767172 1.545043 10486531
0.55232227 -0.43545789 1.5372281 11338499
0.55238008 -0.43332046 1.5296826 12124931
0.55514723 -0.43331915 1.529678 12124931
0.55791432 -0.4333179 1.5296733 12190467
0.56068146 -0.43331659 1.5296689 12190467
0.56344867 -0.43331534 1.5296645 12256003
0.56621575 -0.43331414 1.52966 12321539
0.5689829 -0.43331277 1.5296557 12321539
0.57174999 -0.43331146 1.529651 12387075
0.57451707 -0.43331021 1.5296464 12387075
0.57728404 -0.4333089 1.529642 12387075
0.58005118 -0.43330783 1.5296376 12452611
0.5524503 -0.45816523 1.6277893 6684672
0.55243772 -0.45572436 1.619117 6684672
0.55242538 -0.45330936 1.6105368 6684672
0.55241311 -0.45091969 1.602047 6684672
0.55240089 -0.44855511 1.5936463 6684672
0.55238891 -0.44621527 1.5853331 6684672
0.55237699 -0.44389969 1.577106 6684672
0.5523653 -0.44160807 1.5689642 6684672
0.55235368 -0.43933988 1.5609059 7930370
0.55234218 -0.43709493 1.55293 9241090
0.55233073 -0.43487293 1.5450354 10289923
0.55231953 -0.43267322 1.5372202 11207427
0.55306035 -0.43108201 1.5315666 11797251
0.55583096 -0.43108076 1.5315621 11797251
0.55860144 -0.43107945 1.5315577 11797251
0.56137204 -0.43107808 1.5315531 11862787
0.56414264 -0.43107688 1.5315487 11862787
0.56691325 -0.43107569 1.5315442 11928323
0.56968373 -0.43107438 1.5315397 11928323
0.57245415 -0.43107301 1.531535 11928323
0.57522464 -0.43107188 1.5315306 11993859
0.57799506 -0.43107057 1.5315261 11993859
0.58076555 -0.43106925 1.5315218 11993859
0.55243474 -0.45279121 1.6191082 6684672
0.5524224 -0.45039165 1.610528 6684672
0.55241019 -0.44801748 1.6020385 6684672
0.55239803 -0.44566822 1.5936377 6684672
0.55238605 -0.4433434 1.5853245 6684672
0.55237424 -0.44104278 1.5770979 6684672
0.55236238 -0.43876576 1.568956 6684672
0.55235082 -0.43651229 1.5608978 7799298
0.55233932 -0.43428195 1.5529221 9044482
0.55232793 -0.43207401 1.5450271 10093315
0.55231667 -0.42988861 1.5372125 11010819
0.55374247 -0.4288379 1.5334554 11404035
0.55651647 -0.4288367 1.5334508 11404035
0.55929041 -0.42883539 1.5334463 11404035
0.56206441 -0.42883414 1.5334419 11469571
0.56483835 -0.42883283 1.5334374 11469571
0.56761229 -0.42883164 1.5334327 11469571
0.57038623 -0.42883033 1.5334283 11535107
0.57316017 -0.42882907 1.5334239 11535107
0.57593399 -0.42882788 1.5334194 11535107
0.57870787 -0.42882669 1.5334148 11535107
0.58148175 -0.42882532 1.5334103 11535107
0.55243182 -0.44985807 1.6190997 6684672
0.55241942 -0.44747418 1.6105195 6684672
0.55240721 -0.44511545 1.6020299 6684672
0.55239511 -0.44278121 1.5936294 6684672
0.55238312 -0.44047147 1.5853162 6684672
0.55237126 -0.43818581 1.5770895 6684672
0.55235958 -0.43592358 1.5689478 6684672
0.5523479 -0.43368471 1.5608897 7602690
0.55233651 -0.43146878 1.5529141 8847874
0.55232507 -0.42927521 1.5450194 9896707
0.5523138 -0.42710394 1.5372046 10879747
0.55442619 -0.42658836 1.5353488 11010819
0.55720365 -0.42658722 1.5353445 11010819
0.55998099 -0.42658579 1.5353398 11076355
0.56275845 -0.42658448 1.5353353 11076355
0.56553578 -0.42658329 1.5353308 11076355
0.56831318 -0.4265821 1.5353262 11076355
0.57109052 -0.42658079 1.5353217 11076355
0.57386786 -0.42657954 1.5353172 11076355
0.5766452 -0.42657834 1.5353129 11076355
0.57942253 -0.42657703 1.5353082 11076355
0.58219975 -0.42657584 1.5353036 11076355
0.55241656 -0.44455665 1.6105111 6684672
0.55240428 -0.44221324 1.6020213 6684672
0.55239224 -0.43989438 1.593621 6684672
0.5523802 -0.43759978 1.5853078 6684672
0.55236834 -0.43532884 1.5770814 6684672
0.55235666 -0.43308151 1.5689397 6684672
0.5523451 -0.43085724 1.5608819 7471618
0.55233359 -0.42865562 1.552906 8651266
0.55232215 -0.42647654 1.5450115 9699842
0.55233073 -0.42433453 1.5372517 10617603
0.55511159 -0.42433333 1.5372471 10617603
0.55789244 -0.42433196 1.5372427 10617603
0.5606733 -0.42433065 1.5372379 10617603
0.56345409 -0.42432952 1.5372334 10683139
0.56623489 -0.42432821 1.5372288 10683139
0.5690158 -0.42432708 1.5372245 10683139
0.57179666 -0.42432576 1.53722 10683139
0.57457739 -0.42432451 1.5372154 10683139
0.57735813 -0.42432332 1.5372109 10683139
0.5801388 -0.42432195 1.5372062 10617603
0.55241358 -0.44163918 1.6105024 6684672
0.55240136 -0.43931109 1.602013 6684672
0.55238932 -0.43700743 1.5936126 6684672
0.55237728 -0.43472797 1.5852996 6684672
0.55236548 -0.43247199 1.5770731 6684672
0.5523538 -0.43023944 1.5689316 6684672
0.55234224 -0.42802978 1.5608737 7340546
0.55233073 -0.42584264 1.5528979 8520194
0.55231947 -0.4236778 1.5450035 9568770
0.5530144 -0.42207378 1.5391545 10289923
0.55579871 -0.42207259 1.53915 10224387
0.55858296 -0.42207128 1.5391452 10224387
0.56136721 -0.42207003 1.5391407 10224387
0.56415159 -0.42206877 1.5391362 10224387
0.5669359 -0.42206752 1.5391318 10224387
0.56972015 -0.42206627 1.5391272 10224387
0.57250434 -0.42206508 1.5391227 10224387
0.57528847 -0.42206377 1.5391181 10224387
0.57807267 -0.42206258 1.5391135 10224387
0.58085686 -0.42206132 1.539109 10158851
0.5523985 -0.43640906 1.6020044 6684672
0.55238634 -0.43412066 1.5936041 6684672
0.55237442 -0.43185616 1.5852914 6684672
0.55236256 -0.42961514 1.5770649 6684672
0.552351 -0.42739737 1.5689235 6684672
0.55233932 -0.42520225 1.5608656 7143938
0.55232793 -0.42302966 1.5528902 8323586
0.55231667 -0.42087907 1.5449958 9372162
0.55369985 -0.41980749 1.5410621 9831171
0.55648756 -0.41980624 1.5410575 9831171
0.55927527 -0.41980499 1.5410528 9831171
0.56206298 -0.41980374 1.5410484 9831171
0.56485075 -0.41980249 1.5410438 9831171
0.56763852 -0.41980124 1.5410392 9831171
0.57042623 -0.41979998 1.5410347 9765635
0.57321382 -0.41979879 1.5410302 9765635
0.57600147 -0.4197976 1.5410256 9765635
0.57878911 -0.41979623 1.541021 9765635
0.5815767 -0.41979504 1.5410165 9700099
0.55238342 -0.43123388 1.5935957 6684672
0.5523715 -0.4289844 1.585283 6684672
0.5523597 -0.42675841 1.5770566 6684672
0.55234814 -0.4245553 1.5689154 6684672
0.55233651 -0.42237478 1.5608575 7012609
0.55232507 -0.42021662 1.5528822 8192514
0.55231375 -0.41808033 1.5449878 9241090
0.55438685 -0.41753542 1.5429742 9437698
0.55717808 -0.41753423 1.5429697 9437698
0.55996925 -0.4175331 1.5429652 9437698
0.56276047 -0.41753185 1.5429606 9372162
0.5655517 -0.41753054 1.5429561 9372162
0.56834286 -0.4175294 1.5429516 9372162
0.57113403 -0.41752803 1.5429468 9372162
0.5739252 -0.41752684 1.5429423 9306626
0.57671624 -0.41752565 1.5429378 9306626
0.57950735 -0.4175244 1.5429332 9241090
0.58229846 -0.41752321 1.5429287 9241090
0.55238056 -0.42834723 1.5935873 6684672
0.55236864 -0.42611265 1.5852745 6684672
0.5523569 -0.42390162 1.5770485 6684672
0.55234522 -0.42171329 1.5689071 6684672
0.55233371 -0.41954744 1.5608494 6881537
0.55232233 -0.41740352 1.5528741 7995906
0.55231094 -0.41528171 1.5449798 9044482
0.55507571 -0.41525793 1.5448915 9044482
0.55787039 -0.41525674 1.5448869 9044482
0.56066507 -0.41525555 1.5448822 8978946
0.56345969 -0.41525424 1.5448776 8978946
0.56625432 -0.41525298 1.544873 8978946
0.569049 -0.41525185 1.5448685 8913410
0.57184362 -0.41525054 1.5448639 8913410
0.57463819 -0.41524935 1.5448594 8847874
0.57743281 -0.41524816 1.5448549 8847874
0.58022738 -0.41524696 1.5448503 8782338
0.55236572 -0.42324114 1.5852664 6684672
0.55235392 -0.42104477 1.5770402 6684672
0.5523423 -0.41887128 1.5688989 6684672
0.55233085 -0.41672003 1.5608416 6684672
0.55231935 -0.41459072 1.552866 7864834
0.55296797 -0.41297591 1.5468178 8716802
0.55576628 -0.41297466 1.5468132 8651266
0.55856442 -0.41297346 1.5468087 8585730
0.5613625 -0.41297215 1.546804 8585730
0.56416065 -0.41297102 1.5467994 8520194
0.56695879 -0.41296983 1.546795 8520194
0.56975687 -0.41296858 1.5467904 8454658
0.57255501 -0.41296744 1.5467858 8454658
0.57535303 -0.41296619 1.5467812 8389122
0.57815105 -0.41296488 1.5467765 8389122
0.58094907 -0.41296369 1.546772 8323586
0.55236286 -0.42036939 1.585258 6684672
0.55235106 -0.4181881 1.5770319 6684672
0.55233938 -0.41602933 1.5688907 6684672
0.55232793 -0.41389257 1.5608332 6684672
0.55231655 -0.41177785 1.5528581 7733762
0.55365676 -0.41068697 1.5487444 8258050
0.55645847 -0.41068584 1.5487399 8192514
0.55926007 -0.41068465 1.5487354 8192514
0.56206167 -0.41068327 1.5487306 8126978
0.56486326 -0.41068214 1.5487261 8126978
0.56766492 -0.41068089 1.5487216 8061442
0.57046658 -0.41067976 1.548717 8061442
0.57326812 -0.41067845 1.5487123 7995906
0.57606965 -0.41067725 1.5487077 7930370
0.57887113 -0.41067594 1.548703 7930370
0.58167267 -0.41067481 1.5486984 7864834
0.5523482 -0.4153313 1.5770237 6684672
0.55233657 -0.41318733 1.5688827 6684672
0.55232507 -0.41106534 1.5608252 6684672
0.55231369 -0.40896493 1.5528501 7668226
0.55434734 -0.40839237 1.5506761 7864834
0.55715245 -0.40839112 1.5506713 7799298
0.55995756 -0.40838993 1.5506668 7799298
0.56276268 -0.40838867 1.550662 7733762
0.56556779 -0.40838748 1.5506575 7668226
0.56837291 -0.40838629 1.5506529 7668226
0.57117802 -0.40838504 1.5506485 7602690
0.57398301 -0.40838385 1.5506437 7537154
0.57678801 -0.40838265 1.550639 7537154
0.579593 -0.40838146 1.5506345 7471618
0.55233371 -0.41034544 1.5688745 6684672
0.55232215 -0.40823793 1.5608172 6684672
0.55231082 -0.40615207 1.5528421 7471618
0.55503941 -0.40609187 1.5526121 7471618
0.55784798 -0.40609068 1.5526075 7406082
0.56065667 -0.40608943 1.5526029 7340546
0.5634653 -0.40608835 1.5525982 7340546
0.56627393 -0.4060871 1.5525937 7275010
0.56908256 -0.40608597 1.5525891 7209474
0.57189107 -0.40608466 1.5525844 7143938
0.5746997 -0.40608352 1.5525799 7143938
0.57750821 -0.40608221 1.5525751 7078402
0.58031678 -0.40608096 1.5525706 7012866
0.55233091 -0.40750366 1.5688665 6684672
0.55231935 -0.40541077 1.5608091 6684672
0.55292112 -0.40378702 1.5545578 7143938
0.55573326 -0.40378588 1.5545532 7078402
0.55854547 -0.40378463 1.5545486 7012866
0.56135768 -0.40378332 1.554544 6947330
0.56416976 -0.40378219 1.5545393 6881794
0.56698197 -0.403781 1.5545347 6816258
0.569794 -0.40377975 1.5545301 6816258
0.57260609 -0.40377861 1.5545254 6684672
0.57541811 -0.4037773 1.5545208 6684672
0.5782302 -0.40377617 1.5545163 6684672
0.58104223 -0.40377498 1.5545115 6684672
0.55231661 -0.40258348 1.560801 6684672
0.55361336 -0.40147519 1.5565038 6684672
0.55642903 -0.40147394 1.5564992 6684672
0.55924469 -0.40147263 1.5564945 6684672
0.56206036 -0.4014715 1.5564899 6684672
0.56487608 -0.40147024 1.5564854 6684672
0.56769168 -0.40146911 1.5564808 6684672
0.57050729 -0.40146792 1.556476 6684672
0.57332289 -0.40146661 1.5564713 6684672
0.57613844 -0.40146548 1.5564666 6684672
0.57895404 -0.4014644 1.5564622 6684672
0.58176959 -0.40146321 1.5564576 6684672
0.55231369 -0.39975625 1.5607929 6684672
0.55430722 -0.39915746 1.5584549 6684672
0.55712646 -0.39915621 1.5584501 6684672
0.55994564 -0.39915502 1.5584455 6684672
0.56276476 -0.39915377 1.5584407 6684672
0.565584 -0.39915264 1.558436 6684672
0.56840312 -0.39915144 1.5584314 6684672
0.57122236 -0.39915031 1.5584269 6684672
0.57404149 -0.39914912 1.5584222 6684672
0.57686055 -0.39914787 1.5584176 6684672
0.57967967 -0.39914662 1.5584127 6684672
