# .PCD v0.7 - Point Cloud Data file format
VERSION 0.7
FIELDS x y z rgba
SIZE 4 4 4 4
TYPE F F F U
COUNT 1 1 1 1
WIDTH 1147
HEIGHT 1
VIEWPOINT 0 0 0 1 0 0 0
POINTS 1147
DATA ascii
0.94997048 0.59504938 -0.06575799 16712965
0.94997025 0.59783012 -0.065756083 16712965
0.85227871 0.3700017 -0.11396086 6581784
0.86531508 0.37000185 -0.10794491 27904
0.87813377 0.37000197 -0.10202944 101889
0.89074004 0.37000206 -0.09621197 175618
0.903139 0.37000224 -0.090490222 247555
0.91533589 0.37000233 -0.084861577 251907
0.9273355 0.37000245 -0.079324067 320004
0.93914258 0.3700026 -0.073875427 321540
0.94996858 0.37019426 -0.068879366 323588
0.9499687 0.37297976 -0.068877339 323844
0.9499687 0.37576526 -0.068875253 324612
0.94996858 0.37855074 -0.068873286 325892
0.94996846 0.38133618 -0.06887126 326916
0.94996834 0.38412166 -0.068869233 327428
0.94996834 0.3869071 -0.068867266 392965
0.94996834 0.38969252 -0.06886518 392965
0.9499681 0.39247793 -0.068863153 392965
0.94996798 0.39526334 -0.068861246 392965
0.94996798 0.3980487 -0.06885922 392965
0.9499681 0.40083402 -0.068857133 392965
0.9499681 0.40361935 -0.068855166 392965
0.94996786 0.40640467 -0.06885314 392965
0.94996786 0.40918997 -0.068851113 392965
0.94996762 0.41197526 -0.068849146 392965
0.94996762 0.4147605 -0.06884706 392965
0.94996738 0.4175458 -0.068845093 392965
0.94996738 0.42033103 -0.068843126 392965
0.94996738 0.42311627 -0.0688411 392965
0.94996738 0.42590144 -0.068839073 392965
0.94996727 0.42868662 -0.068837047 392965
0.94996715 0.43147179 -0.06883502 392965
0.94996703 0.43425697 -0.068833053 392965
0.94996691 0.43704209 -0.068831086 327428
0.94996691 0.4398272 -0.06882906 327428
0.94996667 0.44261232 -0.068827033 327428
0.94996667 0.44539741 -0.068825006 327428
0.94996679 0.44818246 -0.06882298 327428
0.94996667 0.45096752 -0.068820953 327428
0.94996655 0.45375258 -0.068818986 327428
0.94996643 0.45653757 -0.0688169 261891
0.94996631 0.45932254 -0.068814933 261891
0.94996631 0.46210754 -0.068812907 261123
0.94996619 0.46489254 -0.06881094 260099
0.94996607 0.4676775 -0.068808913 259075
0.85828018 0.57000452 -0.11104435 6684672
0.8665365 0.57000375 -0.10723424 7405568
0.87470484 0.57000291 -0.10346484 8782081
0.88278651 0.57000214 -0.09973526 10158337
0.89078319 0.57000136 -0.096045136 11469314
0.89869583 0.57000053 -0.092393637 12517890
0.90652585 0.56999975 -0.088780344 13435651
0.91427445 0.56999904 -0.085204482 14091011
0.92194319 0.56999838 -0.081665635 14615556
0.929533 0.56999755 -0.078163028 14943236
0.93704522 0.56999683 -0.074696422 15205380
0.94448113 0.56999618 -0.071264923 15401988
0.94997108 0.57070589 -0.06873095 15729668
0.94997096 0.57349014 -0.068728924 15860740
0.94997084 0.57627445 -0.068726897 16122884
0.94997084 0.57905871 -0.068724871 16385028
0.94997072 0.58184296 -0.068722844 16647172
0.94997072 0.58462727 -0.068720818 16712965
0.94997072 0.58741146 -0.068718851 16712965
0.94997048 0.59019566 -0.068716884 16712965
0.94997048 0.59297979 -0.068714857 16712965
0.94997048 0.59576392 -0.068712831 16712965
0.94997025 0.59854805 -0.068710804 16712965
0.85420787 0.37000179 -0.11622989 3303949
0.86722803 0.37000194 -0.11019468 26112
0.88003063 0.37000206 -0.10426044 34048
0.89262104 0.37000215 -0.098424554 173314
0.90500426 0.37000236 -0.092684746 179714
0.91718602 0.37000242 -0.087038279 249859
0.92917037 0.37000257 -0.081483245 252675
0.94096279 0.37000269 -0.076017261 320260
0.94996834 0.37063128 -0.071842551 322564
0.94996858 0.37342018 -0.071840405 323076
0.94996846 0.37620917 -0.071838379 323332
0.94996858 0.37899804 -0.071836233 324356
0.94996846 0.38178697 -0.071834326 325380
0.94996834 0.38457587 -0.071832299 326404
0.94996846 0.38736475 -0.071830213 327428
0.94996834 0.39015362 -0.071828127 392965
0.94996834 0.39294249 -0.0718261 392965
0.9499681 0.39573133 -0.071824193 392965
0.94996798 0.39852017 -0.071822166 392965
0.9499681 0.40130892 -0.071820021 392965
0.94996798 0.40409771 -0.071817994 392965
0.94996786 0.40688652 -0.071816087 392965
0.94996774 0.40967524 -0.07181406 392965
0.94996774 0.41246399 -0.071812034 392965
0.9499675 0.41525269 -0.071810007 392965
0.9499675 0.41804144 -0.071807981 392965
0.94996738 0.4208301 -0.071805954 392965
0.94996738 0.42361876 -0.071803927 392965
0.94996738 0.42640743 -0.071801901 392965
0.94996715 0.42919609 -0.071799874 392965
0.94996715 0.43198466 -0.071797848 392965
0.94996703 0.4347733 -0.071795881 392965
0.94996691 0.43756187 -0.071793854 327428
0.94996703 0.44035041 -0.071791768 327428
0.94996679 0.44313899 -0.071789742 327428
0.94996679 0.44592753 -0.071787775 327428
0.94996667 0.44871604 -0.071785748 327428
0.94996655 0.45150459 -0.071783662 327428
0.94996643 0.4542931 -0.071781695 327428
0.94996631 0.45708153 -0.071779668 261891
0.94996643 0.45986992 -0.071777642 261635
0.94996631 0.46265835 -0.071775556 260355
0.94996619 0.46544683 -0.071773589 259331
0.94996607 0.46823522 -0.071771562 258307
0.85186243 0.57000506 -0.11716926 8331276
0.86019754 0.57000434 -0.11330581 6684672
0.86844373 0.57000351 -0.1094836 6815744
0.87660182 0.57000262 -0.1057021 8192000
0.88467348 0.57000196 -0.10196078 9568513
0.8926599 0.57000107 -0.098258913 10879490
0.90056276 0.57000035 -0.09459585 11993602
0.90838289 0.56999958 -0.090971112 12911363
0.91612196 0.5699988 -0.087383807 13566723
0.92378104 0.56999815 -0.083833694 14091268
0.93136132 0.56999743 -0.08032012 14484484
0.93886435 0.56999665 -0.076842368 14812164
0.94629061 0.569996 -0.07340014 15270916
0.94997084 0.57139134 -0.071693301 15533060
0.94997096 0.57417899 -0.071691155 15598596
0.94997096 0.5769667 -0.071689069 15729668
0.94997096 0.57975441 -0.071687043 15991812
0.94997072 0.58254212 -0.071685076 16253956
0.94997072 0.58532983 -0.071683049 16581636
0.94997072 0.58811748 -0.071680963 16712965
0.9499706 0.59090513 -0.071678936 16712965
0.94997048 0.59369272 -0.07167697 16712965
0.94997048 0.59648031 -0.071674943 16712965
0.94997036 0.5992679 -0.071672916 16712965
0.85613704 0.37000191 -0.11849868 26112
0.86914074 0.37000203 -0.11244452 26112
0.88192725 0.37000218 -0.10649157 31744
0.89450181 0.3700023 -0.10063732 105473
0.90686965 0.37000242 -0.09487915 177666
0.91903591 0.37000254 -0.089214861 247811
0.93100548 0.37000263 -0.083642364 250627
0.94278312 0.37000275 -0.078159094 319748
0.94996822 0.37106937 -0.074813008 321540
0.94996834 0.37386176 -0.074810863 322052
0.94996846 0.37665412 -0.074808836 322308
0.94996858 0.37944654 -0.07480669 322564
0.94996858 0.38223884 -0.074804664 323844
0.94996846 0.38503122 -0.074802637 324868
0.94996846 0.38782352 -0.074800491 325892
0.94996834 0.39061585 -0.074798524 327172
0.94996834 0.39340818 -0.074796498 392965
0.9499681 0.39620051 -0.074794531 392965
0.9499681 0.39899278 -0.074792385 392965
0.9499681 0.40178502 -0.074790359 392965
0.9499681 0.40457729 -0.074788392 392965
0.94996786 0.40736949 -0.074786425 392965
0.94996774 0.4101617 -0.074784279 392965
0.94996774 0.41295391 -0.074782252 392965
0.94996762 0.41574609 -0.074780226 392965
0.9499675 0.41853827 -0.074778259 392965
0.94996738 0.42133039 -0.074776173 392965
0.94996738 0.42412254 -0.074774146 392965
0.94996727 0.42691466 -0.07477212 392965
0.94996715 0.42970678 -0.074770093 392965
0.94996715 0.43249881 -0.074768007 392965
0.94996715 0.43529087 -0.07476604 392965
0.94996691 0.43808296 -0.074764013 327428
0.94996691 0.44087496 -0.074761868 327428
0.94996691 0.44366699 -0.074759901 327428
0.94996679 0.44645897 -0.074757874 327428
0.94996667 0.44925094 -0.074755847 327428
0.94996667 0.45204291 -0.074753761 327428
0.94996643 0.45483488 -0.074751735 327428
0.94996643 0.45762676 -0.074749708 261891
0.94996643 0.46041867 -0.074747682 260611
0.94996631 0.46321058 -0.074745655 259587
0.94996619 0.46600243 -0.074743629 258563
0.94996619 0.46879432 -0.074741602 257539
0.85379004 0.57000488 -0.119443 6684672
0.86211514 0.57000405 -0.11556715 6684672
0.87035084 0.57000321 -0.1117329 6684672
0.87849867 0.5700025 -0.10793948 7602176
0.8865602 0.57000172 -0.10418642 8978689
0.89453673 0.57000089 -0.10047275 10289666
0.90242958 0.57000011 -0.096798003 11403778
0.91024005 0.56999934 -0.093161821 12321539
0.91796947 0.56999868 -0.089563251 13042435
0.92561889 0.56999791 -0.086001873 13632259
0.93318987 0.56999713 -0.082476974 14025732
0.94068301 0.56999654 -0.078988433 14681092
0.94810009 0.56999588 -0.075535357 15139844
0.94997096 0.57207835 -0.074662805 15270916
0.94997096 0.57486951 -0.074660659 15401988
0.94997096 0.57766068 -0.074658632 15467524
0.94997096 0.58045179 -0.074656546 15598596
0.94997096 0.58324295 -0.07465452 15926276
0.94997072 0.58603412 -0.074652553 16188420
0.94997072 0.58882535 -0.074650407 16450564
0.94997072 0.59161639 -0.07464838 16712965
0.9499706 0.59440744 -0.074646354 16712965
0.94997072 0.59719849 -0.074644268 16712965
0.94997048 0.59998953 -0.074642301 16712965
0.85806608 0.370002 -0.12076747 26112
0.87105346 0.37000212 -0.11469424 26112
0.88382387 0.37000224 -0.10872263 29440
0.89638257 0.37000239 -0.10284984 103169
0.90873492 0.37000251 -0.097073674 175362
0.9208858 0.37000263 -0.091391563 245507
0.93284047 0.37000272 -0.085801244 249859
0.94460332 0.37000281 -0.080300808 319236
0.9499681 0.37150854 -0.077790916 320772
0.94996834 0.37430438 -0.07778877 321028
0.94996834 0.3771002 -0.077786565 321284
0.94996834 0.37989607 -0.077784538 321796
0.94996834 0.38269183 -0.077782452 322052
0.94996846 0.38548768 -0.077780366 323076
0.94996834 0.38828349 -0.07777828 324100
0.94996834 0.39107925 -0.077776194 325380
0.9499681 0.39387506 -0.077774227 326404
0.9499681 0.39667085 -0.0777722 392965
0.9499681 0.39946654 -0.077770114 392965
0.9499681 0.40226233 -0.077768087 392965
0.94996798 0.405058 -0.077765942 392965
0.94996786 0.40785372 -0.077763975 392965
0.94996774 0.41064942 -0.077761948 392965
0.94996786 0.41344506 -0.077759862 392965
0.94996774 0.41624072 -0.077757835 392965
0.9499675 0.41903639 -0.077755809 392965
0.9499675 0.42183197 -0.077753782 392965
0.94996738 0.42462757 -0.077751756 392965
0.94996738 0.42742315 -0.07774961 392965
0.94996727 0.43021873 -0.077747583 392965
0.94996715 0.43301424 -0.077745616 392965
0.94996703 0.43580979 -0.07774353 392965
0.94996703 0.43860528 -0.077741444 327428
0.94996703 0.44140077 -0.077739418 327428
0.94996679 0.44419631 -0.077737451 327428
0.94996667 0.44699174 -0.077735305 327428
0.94996667 0.44978717 -0.077733278 327428
0.94996667 0.45258257 -0.077731133 327428
0.94996655 0.455378 -0.077729225 327428
0.94996643 0.45817339 -0.077727199 260867
0.94996643 0.46096876 -0.077725112 259843
0.94996631 0.46376413 -0.077723086 258563
0.94996607 0.4665595 -0.077721119 257539
0.94996607 0.46935484 -0.077718973 3592208
0.85571814 0.57000464 -0.12171662 6684672
0.86403251 0.57000381 -0.11782861 6684672
0.87225795 0.57000303 -0.11398214 6684672
0.88039565 0.57000226 -0.1101768 7012352
0.88844693 0.57000148 -0.10641181 8388865
0.89641356 0.57000071 -0.10268641 9699842
0.90429652 0.56999993 -0.099000216 10813954
0.9120971 0.56999922 -0.095352411 11731715
0.91981697 0.56999838 -0.091742575 12518147
0.92745674 0.56999767 -0.088169992 13107971
0.93501806 0.56999701 -0.084634125 13894660
0.94250178 0.56999642 -0.081134558 14484484
0.94990957 0.5699957 -0.077670574 14943236
0.94997084 0.57276726 -0.077639818 15074308
0.94997084 0.57556182 -0.077637672 15139844
0.94997096 0.57835644 -0.077635646 15205380
0.94997108 0.58115101 -0.07763344 15336452
0.94997096 0.58394563 -0.077631414 15467524
0.94997096 0.5867402 -0.077629447 15795204
0.94997084 0.58953476 -0.077627301 16057348
0.9499706 0.59232938 -0.077625275 16319492
0.9499706 0.59512395 -0.077623248 16647429
0.9499706 0.59791845 -0.077621102 16712965
0.85999513 0.37000212 -0.12303627 26112
0.87296629 0.37000224 -0.11694407 26112
0.88572061 0.37000236 -0.11095351 26880
0.89826345 0.37000251 -0.10506243 100609
0.91060019 0.37000263 -0.099268019 172802
0.92273581 0.37000275 -0.093568087 243715
0.93467546 0.37000281 -0.087960243 249347
0.94642353 0.37000287 -0.082442403 318724
0.94996798 0.37194878 -0.080776215 319492
0.9499681 0.37474811 -0.080774009 320004
0.94996822 0.37754741 -0.080771863 320260
0.94996834 0.38034675 -0.080769777 320516
0.94996822 0.38314605 -0.080767632 321028
0.94996846 0.38594529 -0.080765605 321284
0.94996834 0.38874456 -0.080763459 322308
0.94996846 0.39154381 -0.080761313 323588
0.94996822 0.39434314 -0.080759287 324612
0.9499681 0.39714238 -0.08075726 325636
0.9499681 0.39994159 -0.080755234 326916
0.94996798 0.40274081 -0.080753148 392965
0.9499681 0.40553993 -0.080751061 392965
0.94996786 0.40833914 -0.080749094 392965
0.94996774 0.4111383 -0.080746949 392965
0.94996762 0.41393745 -0.080744922 392965
0.94996774 0.41673654 -0.080742836 392965
0.9499675 0.4195357 -0.080740809 392965
0.94996738 0.42233479 -0.080738783 392965
0.94996738 0.42513385 -0.080736697 392965
0.94996727 0.42793292 -0.08073467 392965
0.94996715 0.43073192 -0.080732584 392965
0.94996715 0.43353099 -0.080730557 392965
0.94996703 0.43632996 -0.080728471 327428
0.94996691 0.43912897 -0.080726385 327428
0.94996703 0.44192791 -0.080724359 327428
0.94996679 0.44472691 -0.080722332 327428
0.94996679 0.44752586 -0.080720305 327428
0.94996667 0.45032474 -0.08071816 327428
0.94996655 0.45312369 -0.080716133 327428
0.94996655 0.45592254 -0.080714107 261123
0.94996643 0.45872143 -0.08071202 259843
0.94996643 0.46152025 -0.080709934 258819
0.94996631 0.46431908 -0.080707908 257539
0.94996607 0.46711794 -0.080705941 256515
0.94996619 0.46991673 -0.080703795 6927902
0.85764575 0.5700044 -0.12399018 6684672
0.86594987 0.57000363 -0.12008989 6684672
0.87416482 0.57000285 -0.11623144 6684672
0.88229251 0.57000202 -0.112414 6684672
0.89033377 0.57000118 -0.10863721 7733505
0.8982904 0.57000041 -0.10490006 9044225
0.90616333 0.56999975 -0.10120237 10224130
0.91395426 0.56999892 -0.097543001 11141634
0.92166412 0.5699982 -0.0939219 11928323
0.92929435 0.56999749 -0.090338171 12976899
0.93684602 0.56999689 -0.086791217 13698052
0.94432044 0.5699963 -0.083280683 14287876
0.94997072 0.57065952 -0.080626369 14681092
0.94997072 0.57345772 -0.080624223 14812164
0.94997084 0.5762558 -0.080622077 14877700
0.94997072 0.57905394 -0.08062005 14943236
0.94997084 0.58185196 -0.080617845 15008772
0.94997096 0.58464998 -0.08061564 15139844
0.94997096 0.58744806 -0.080613613 15336452
0.94997096 0.59024608 -0.080611587 15598596
0.94997084 0.59304404 -0.0806095 15860740
0.9499706 0.59584212 -0.080607533 16188420
0.94997072 0.59864008 -0.080605447 16450821
0.86192417 0.37000221 -0.12530512 26112
0.87487888 0.37000236 -0.11919367 26112
0.88761687 0.37000251 -0.11318457 26112
0.9001441 0.37000263 -0.10727489 98305
0.91246533 0.37000272 -0.10146236 170242
0.92458594 0.37000281 -0.09574461 243203
0.93651056 0.37000284 -0.090119123 248579
0.94824386 0.3700029 -0.084583998 317956
0.94996798 0.37239009 -0.083768904 318468
0.94996798 0.37519291 -0.083766699 318724
0.9499681 0.37799576 -0.083764613 319236
0.9499681 0.38079855 -0.083762527 319492
0.94996822 0.38360134 -0.083760381 319748
0.94996822 0.3864041 -0.083758235 320004
0.94996822 0.38920686 -0.083756149 320260
0.94996834 0.39200959 -0.083753943 321540
0.9499681 0.39481238 -0.083751917 322564
0.9499681 0.39761508 -0.083749831 323588
0.9499681 0.40041775 -0.083747745 324868
0.94996798 0.40322044 -0.083745718 325892
0.94996798 0.40602311 -0.083743572 392453
0.94996786 0.40882581 -0.083741546 392965
0.94996774 0.41162843 -0.083739519 392965
0.94996762 0.41443107 -0.083737373 392965
0.94996762 0.41723365 -0.083735347 392965
0.9499675 0.42003629 -0.08373332 392965
0.94996738 0.42283887 -0.083731174 392965
0.94996738 0.42564139 -0.083729148 392965
0.94996738 0.42844394 -0.083727002 392965
0.94996715 0.43124643 -0.083724976 392965
0.94996703 0.43404895 -0.083722949 392965
0.94996715 0.43685144 -0.083720803 327428
0.94996703 0.43965393 -0.083718777 327428
0.94996691 0.44245636 -0.08371675 327428
0.94996667 0.44525886 -0.083714724 327428
0.94996679 0.44806126 -0.083712578 327428
0.94996667 0.45086372 -0.083710551 327428
0.94996667 0.45366606 -0.083708405 326404
0.94996643 0.45646846 -0.083706379 259843
0.94996643 0.45927078 -0.083704352 258563
0.94996643 0.46207309 -0.083702207 257539
0.94996619 0.46487546 -0.08370018 256515
0.94996619 0.46767777 -0.083698153 255235
0.85957384 0.57000417 -0.12626362 6684672
0.86786747 0.57000339 -0.12235123 6684672
0.87607193 0.57000262 -0.11848068 6684672
0.88418937 0.57000172 -0.11465132 6684672
0.89222062 0.57000101 -0.11086255 7143681
0.90016699 0.57000023 -0.1071139 8454401
0.90803027 0.56999952 -0.1034044 9568770
0.9158113 0.5699988 -0.09973377 10551810
0.92351139 0.56999809 -0.096101284 11797251
0.93113184 0.56999743 -0.092506289 12780291
0.93867421 0.56999677 -0.08894825 13501444
0.9461391 0.56999618 -0.085426688 14091268
0.9499706 0.57134831 -0.083618164 14418948
0.94997072 0.57414985 -0.083616018 14484484
0.94997072 0.57695144 -0.083613932 14615556
0.94997072 0.57975298 -0.083611727 14681092
0.94997084 0.58255458 -0.0836097 14746628
0.94997072 0.58535618 -0.083607554 14812164
0.94997096 0.58815765 -0.083605349 14877700
0.94997096 0.59095919 -0.083603323 15139844
0.94997084 0.59376061 -0.083601236 15401988
0.94997072 0.59656215 -0.08359921 15664132
0.94997072 0.59936363 -0.083597064 15991812
0.86385322 0.37000236 -0.12757385 26112
0.87679148 0.37000242 -0.12144339 26112
0.88951361 0.3700026 -0.11541545 26112
0.90202487 0.37000272 -0.10948741 96001
0.91433072 0.37000278 -0.10365665 169474
0.92643583 0.3700029 -0.097921014 242435
0.93834543 0.37000293 -0.092278063 247811
0.94996786 0.37002617 -0.08677119 316932
0.94996798 0.37283251 -0.086768985 317444
0.94996786 0.37563887 -0.086766899 317700
0.94996786 0.37844521 -0.086764812 317956
0.9499681 0.38125148 -0.086762667 318212
0.9499681 0.38405773 -0.086760461 318468
0.9499681 0.38686401 -0.086758316 318724
0.9499681 0.38967025 -0.086756229 318980
0.94996822 0.39247647 -0.086754024 319492
0.94996822 0.39528272 -0.086751938 320516
0.94996822 0.39808893 -0.086749792 321540
0.9499681 0.40089515 -0.086747766 322820
0.9499681 0.40370131 -0.08674562 323844
0.9499681 0.40650746 -0.086743593 324868
0.94996786 0.40931365 -0.086741567 325892
0.94996774 0.41211978 -0.086739421 392453
0.94996774 0.41492587 -0.086737335 392965
0.94996762 0.41773197 -0.086735249 392965
0.94996762 0.4205381 -0.086733222 392965
0.94996738 0.42334419 -0.086731136 392965
0.94996738 0.4261502 -0.08672905 392965
0.94996738 0.42895624 -0.086726904 392965
0.94996715 0.43176225 -0.086724937 392965
0.94996715 0.43456823 -0.086722791 327428
0.94996715 0.43737423 -0.086720705 327428
0.94996703 0.44018021 -0.086718678 327428
0.94996691 0.44298613 -0.086716533 327428
0.94996667 0.44579214 -0.086714506 327428
0.94996667 0.44859803 -0.08671242 326916
0.94996679 0.45140395 -0.086710334 326148
0.94996667 0.4542098 -0.086708188 325124
0.94996643 0.45701569 -0.086706221 258307
0.94996643 0.45982152 -0.086704075 257283
0.94996643 0.46262735 -0.086702049 256259
0.94996631 0.46543318 -0.086699903 255235
0.94996619 0.46823898 -0.086697817 253955
0.86150157 0.57000393 -0.12853718 6684672
0.86978459 0.57000321 -0.12461257 6684672
0.87797904 0.57000238 -0.12072992 6684672
0.88608623 0.57000154 -0.11688852 6684672
0.89410746 0.57000077 -0.11308789 6684672
0.90204382 0.56999999 -0.10932755 7864577
0.90989685 0.56999928 -0.10560656 8978946
0.91766798 0.56999862 -0.10192448 10420738
0.92535853 0.56999791 -0.098280668 11600643
0.93296945 0.56999731 -0.094674468 12583683
0.94050217 0.56999665 -0.091105342 13304579
0.94795775 0.56999612 -0.087572694 13960196
0.94997048 0.57203883 -0.086617529 14156804
0.9499706 0.57484388 -0.086615324 14222340
0.94997072 0.57764894 -0.086613178 14287876
0.94997084 0.58045399 -0.086610973 14353412
0.94997072 0.58325905 -0.086608946 14418948
0.94997072 0.58606404 -0.086606741 14484484
0.94997096 0.58886904 -0.086604595 14550020
0.94997084 0.59167403 -0.086602509 14615556
0.94997072 0.59447902 -0.086600423 14943236
0.94997084 0.59728396 -0.086598337 15205380
0.86578226 0.37000239 -0.12984252 26112
0.87870407 0.37000257 -0.12369299 26112
0.89141011 0.37000269 -0.11764634 26112
0.90390563 0.37000281 -0.11169976 93697
0.91619599 0.37000287 -0.10585088 168706
0.92828619 0.37000287 -0.1000973 241667
0.94018042 0.37000299 -0.094436884 247043
0.94996774 0.37046626 -0.089778781 316164
0.94996786 0.37327608 -0.089776695 316164
0.94996786 0.37608594 -0.089774549 316420
0.94996786 0.37889573 -0.089772463 316676
0.94996798 0.38170552 -0.089770198 316932
0.9499681 0.38451529 -0.089768052 317188
0.94996798 0.38732511 -0.089766026 317444
0.94996798 0.39013484 -0.089763761 317700
0.9499681 0.39294454 -0.089761615 317956
0.94996822 0.39575428 -0.089759529 318468
0.94996822 0.39856398 -0.089757383 319492
0.9499681 0.40137368 -0.089755237 320516
0.9499681 0.40418336 -0.089753091 321540
0.9499681 0.406993 -0.089751005 322564
0.94996786 0.40980271 -0.089748979 323588
0.94996786 0.41261232 -0.089746833 324612
0.94996786 0.41542193 -0.089744687 325380
0.94996762 0.41823155 -0.089742661 326148
0.9499675 0.42104116 -0.089740634 392453
0.9499675 0.42385072 -0.089738488 392965
0.94996738 0.42666027 -0.089736402 392965
0.94996738 0.42946982 -0.089734375 327428
0.94996715 0.43227932 -0.08973217 327428
0.94996727 0.43508884 -0.089730144 327428
0.94996715 0.43789837 -0.089728117 327428
0.94996703 0.4407078 -0.089725971 327428
0.94996703 0.44351724 -0.089723825 326916
0.94996691 0.4463267 -0.089721799 326148
0.94996667 0.44913614 -0.089719772 325380
0.94996667 0.45194551 -0.089717627 324356
0.94996667 0.45475492 -0.089715481 257795
0.94996643 0.45756426 -0.089713395 256771
0.94996643 0.46037361 -0.089711308 255747
0.94996643 0.46318293 -0.089709163 254723
0.94996631 0.46599224 -0.089707017 253699
0.94996607 0.46880162 -0.08970511 252675
0.87170184 0.57000297 -0.12687373 6684672
0.87988615 0.57000208 -0.12297893 6684672
0.88798308 0.5700013 -0.11912572 6684672
0.89599383 0.57000059 -0.11531347 6684672
0.90392029 0.56999987 -0.11154127 7340289
0.91176355 0.56999916 -0.10780883 8847874
0.91952479 0.5699985 -0.10411525 10224130
0.92720556 0.56999785 -0.10045993 11404035
0.93480682 0.56999719 -0.096842527 12387075
0.94233024 0.56999654 -0.093262315 13107971
0.94977641 0.56999594 -0.089718699 13763588
0.9499706 0.5727309 -0.089624286 13829124
0.94997072 0.57553947 -0.089622021 13894660
0.94997072 0.57834804 -0.089619875 13960196
0.94997072 0.58115661 -0.089617848 14025732
0.94997072 0.58396512 -0.089615583 14091268
0.94997072 0.58677369 -0.089613497 14156804
0.94997084 0.58958226 -0.089611351 14222340
0.94997084 0.59239072 -0.089609206 14287876
0.94997096 0.59519917 -0.089607 14418948
0.94997096 0.59800768 -0.089604914 14681092
0.88061678 0.37000266 -0.12594253 26112
0.89330661 0.37000281 -0.11987722 26112
0.90578651 0.3700029 -0.11391222 93185
0.91806126 0.37000293 -0.1080451 167938
0.93013608 0.37000299 -0.1022737 240899
0.94201541 0.37000304 -0.096595764 246275
0.94996762 0.3709074 -0.092794061 249347
0.94996762 0.37372077 -0.092791915 249347
0.94996774 0.3765341 -0.09278965 315140
0.94996762 0.37934744 -0.092787623 315396
0.94996786 0.38216072 -0.092785358 315652
0.94996786 0.384974 -0.092783213 315908
0.94996786 0.38778728 -0.092781007 316164
0.94996786 0.39060056 -0.092778921 316420
0.94996786 0.39341378 -0.092776716 316420
0.9499681 0.396227 -0.09277463 316676
0.9499681 0.39904019 -0.092772365 317188
0.9499681 0.40185344 -0.092770338 318212
0.94996798 0.40466663 -0.092768192 319236
0.9499681 0.40747979 -0.092766047 320260
0.94996786 0.41029298 -0.092763901 321028
0.94996786 0.41310611 -0.092761755 322052
0.94996786 0.41591927 -0.092759669 323076
0.94996762 0.4187324 -0.092757583 323844
0.94996762 0.42154551 -0.092755556 324612
0.9499675 0.42435858 -0.09275341 325124
0.9499675 0.42717165 -0.092751384 325636
0.94996738 0.42998469 -0.092749178 325892
0.94996715 0.43279776 -0.092747092 326148
0.94996715 0.43561074 -0.092745066 325892
0.94996715 0.43842372 -0.09274292 325892
0.94996703 0.4412367 -0.092740774 325380
0.94996703 0.44404969 -0.092738628 324868
0.94996691 0.44686264 -0.092736602 324100
0.94996679 0.44967556 -0.092734456 323332
0.94996667 0.45248848 -0.09273237 257027
0.94996667 0.45530134 -0.092730284 256003
0.94996643 0.45811424 -0.092728138 255235
0.94996643 0.4609271 -0.092726111 254211
0.94996643 0.46373993 -0.092723966 253187
0.94996643 0.46655273 -0.09272182 252163
0.94996619 0.4693656 -0.092719853 3654161
0.87361932 0.57000268 -0.12913489 6684672
0.88179302 0.57000196 -0.12522817 6684672
0.88987982 0.57000113 -0.12136281 6684672
0.89788067 0.57000035 -0.11753869 6684672
0.90579689 0.56999975 -0.11375499 7143681
0.91363001 0.5699991 -0.11001098 8716802
0.92138147 0.56999838 -0.10630596 10093058
0.92905271 0.56999773 -0.10263932 11207427
0.93664432 0.56999707 -0.099010706 12190467
0.94415832 0.56999642 -0.095419288 12911363
0.94997048 0.57061273 -0.092640758 13435908
0.94997048 0.57342482 -0.092638493 13501444
0.94997048 0.5762369 -0.092636466 13566980
0.9499706 0.57904905 -0.092634201 13632516
0.94997072 0.58186108 -0.092631936 13698052
0.9499706 0.58467317 -0.09262991 13763588
0.9499706 0.58748519 -0.092627764 13829124
0.94997096 0.59029716 -0.092625558 13894660
0.94997096 0.59310907 -0.092623353 13960196
0.94997096 0.59592104 -0.092621207 13960196
0.94997096 0.59873301 -0.092619061 14091268
0.88252914 0.37000278 -0.12819219 26112
0.89520323 0.37000287 -0.12210786 26112
0.90766716 0.37000296 -0.11612451 92673
0.91992652 0.37000301 -0.11023927 167170
0.93198609 0.37000301 -0.10444999 240131
0.9438504 0.37000307 -0.098754406 245507
0.94996738 0.37134969 -0.095816851 247811
0.94996762 0.37416652 -0.095814645 248067
0.94996762 0.3769834 -0.09581244 248323
0.94996762 0.37980026 -0.095810294 248323
0.94996762 0.38261709 -0.095808148 248579
0.94996774 0.38543388 -0.095806003 314372
0.94996786 0.38825068 -0.095803738 314628
0.94996774 0.39106748 -0.095801592 314884
0.94996786 0.39388424 -0.095799446 314884
0.9499681 0.39670098 -0.095797181 315140
0.9499681 0.39951769 -0.095795035 315140
0.94996822 0.40233439 -0.09579277 315908
0.9499681 0.4051511 -0.095790625 316676
0.9499681 0.40796775 -0.095788598 317700
0.94996786 0.41078448 -0.095786452 318724
0.94996786 0.41360116 -0.095784366 319492
0.94996786 0.41641781 -0.09578228 320260
0.94996774 0.41923442 -0.095780075 321284
0.94996738 0.4220511 -0.095778108 321796
0.94996738 0.42486772 -0.095775962 322564
0.94996738 0.42768428 -0.095773816 323076
0.94996727 0.43050081 -0.09577167 323332
0.94996715 0.43331739 -0.095769525 323588
0.94996715 0.43613395 -0.095767379 323588
0.94996703 0.43895048 -0.095765352 323332
0.94996703 0.44176698 -0.095763206 323076
0.94996691 0.44458348 -0.09576118 322564
0.94996679 0.44739991 -0.095759034 322052
0.94996679 0.45021635 -0.095756829 321284
0.94996667 0.45303282 -0.095754623 254979
0.94996667 0.45584917 -0.095752597 254211
0.94996655 0.45866561 -0.09575057 253187
0.94996643 0.46148196 -0.095748425 252419
0.94996643 0.46429831 -0.095746279 251395
0.94996643 0.46711469 -0.095744073 250371
0.94996619 0.46993107 -0.095742106 7056672
0.88370001 0.57000172 -0.12747729 6684672
0.89177632 0.57000089 -0.12360013 6684672
0.89976704 0.57000017 -0.11976409 6684672
0.90767312 0.56999964 -0.11596882 6947073
0.91549647 0.56999892 -0.11221302 8520194
0.92323828 0.56999826 -0.10849655 9896450
0.93089974 0.56999761 -0.10481864 11010819
0.93848181 0.56999689 -0.10117877 11993859
0.94598627 0.5699963 -0.097576141 12714755
0.94997048 0.57130486 -0.095662594 13108228
0.94997048 0.57412052 -0.095660448 13173764
0.94997048 0.57693613 -0.095658183 13239300
0.9499706 0.57975173 -0.095656037 13304836
0.94997048 0.58256733 -0.095653892 13370372
0.94997072 0.58538282 -0.095651627 13435908
0.94997084 0.58819836 -0.09564954 13435908
0.94997072 0.59101391 -0.095647335 13501444
0.94997084 0.59382939 -0.09564507 13566980
0.94997084 0.59664488 -0.095642984 13566980
0.94997084 0.5994603 -0.095640719 13632516
0.89709985 0.37000293 -0.12433863 26112
0.90954816 0.37000299 -0.11833668 91905
0.92179167 0.37000304 -0.11243337 166658
0.93383586 0.37000307 -0.10662639 239363
0.94568515 0.37000316 -0.10091311 244739
0.94996738 0.371793 -0.098847151 246275
0.94996738 0.3746134 -0.098844886 246531
0.94996738 0.37743384 -0.09884274 246787
0.94996762 0.38025415 -0.098840535 247043
0.94996762 0.38307455 -0.098838389 247299
0.94996762 0.38589489 -0.098836243 247299
0.94996762 0.38871524 -0.098833978 247555
0.94996762 0.39153558 -0.098831892 247811
0.94996786 0.39435583 -0.098829567 313348
0.94996786 0.39717612 -0.098827422 313604
0.94996786 0.39999637 -0.098825276 313604
0.94996786 0.40281662 -0.09882313 313604
0.9499681 0.40563679 -0.098820806 314372
0.94996798 0.40845701 -0.09881866 315140
0.94996786 0.41127723 -0.098816514 315908
0.94996786 0.41409743 -0.098814487 316932
0.94996774 0.41691762 -0.098812342 317700
0.94996774 0.41973779 -0.098810196 318468
0.94996762 0.42255798 -0.09880811 319236
0.94996738 0.42537808 -0.098805904 319748
0.94996738 0.42819822 -0.098803759 320260
0.94996738 0.43101826 -0.098801732 320516
0.94996715 0.43383837 -0.098799586 320772
0.94996715 0.43665844 -0.0987975 321028
0.94996715 0.43947849 -0.098795295 320772
0.94996703 0.4422985 -0.098793149 320516
0.94996691 0.44511855 -0.098791122 320260
0.94996691 0.44793853 -0.098788977 319748
0.94996667 0.45075855 -0.098786771 253699
0.94996667 0.4535785 -0.098784685 252931
0.94996655 0.45639843 -0.098782539 252163
0.94996643 0.45921835 -0.098780513 251395
0.94996643 0.46203828 -0.098778367 250371
0.94996631 0.46485817 -0.098776162 249603
0.94996643 0.46767801 -0.098774016 248579
0.88560688 0.57000154 -0.12972629 6684672
0.89367294 0.57000077 -0.12583733 6684672
0.90165353 0.57000017 -0.12198961 6684672
0.90954947 0.56999952 -0.11818242 6816001
0.91736305 0.5699988 -0.11441517 8323586
0.92509508 0.56999815 -0.11068708 9699842
0.93274665 0.56999749 -0.10699797 10814211
0.9403193 0.56999677 -0.10334682 11797251
0.94781423 0.56999612 -0.099733114 12583683
0.94997048 0.57199872 -0.098692 12780291
0.94997048 0.5748179 -0.098689854 12845827
0.94997048 0.57763708 -0.098687649 12911363
0.94997048 0.5804562 -0.098685384 12911620
0.9499706 0.58327526 -0.098683178 12977156
0.94997072 0.58609432 -0.098681033 13042692
0.9499706 0.58891344 -0.098678827 13108228
0.9499706 0.5917325 -0.098676741 13108228
0.94997084 0.59455144 -0.098674476 13173764
0.94997072 0.59737051 -0.09867233 13173764
0.89899635 0.37000301 -0.12656921 26112
0.91142893 0.37000304 -0.12054884 26112
0.92365694 0.3700031 -0.11462742 165890
0.93568575 0.37000316 -0.10880256 173058
0.94752014 0.37000319 -0.10307181 244227
0.94996727 0.3722375 -0.10188514 244995
0.94996738 0.37506142 -0.10188293 245251
0.94996738 0.37788537 -0.10188061 245251
0.94996738 0.38070926 -0.10187846 245507
0.9499675 0.38353321 -0.10187632 245763
0.9499675 0.38635707 -0.10187405 245763
0.9499675 0.38918093 -0.10187191 246019
0.94996774 0.39200479 -0.1018697 246019
0.94996762 0.39482865 -0.1018675 246275
0.94996774 0.39765245 -0.10186535 246275
0.94996786 0.40047622 -0.10186309 246531
0.94996786 0.40329999 -0.10186088 246531
0.94996786 0.40612373 -0.10185868 246531
0.94996798 0.40894747 -0.10185641 312580
0.94996786 0.41177124 -0.10185432 313348
0.94996786 0.41459498 -0.10185218 314116
0.94996786 0.41741869 -0.10185003 314884
0.94996762 0.4202424 -0.10184789 315652
0.9499675 0.42306611 -0.10184574 316420
0.9499675 0.42588976 -0.1018436 316932
0.9499675 0.42871341 -0.10184145 317444
0.94996738 0.431537 -0.1018393 317700
0.94996715 0.43436065 -0.10183716 317956
0.94996715 0.43718427 -0.10183501 318212
0.94996703 0.44000787 -0.10183287 318212
0.94996715 0.44283137 -0.10183072 317956
0.94996691 0.44565499 -0.10182869 252163
0.94996691 0.44847849 -0.10182643 251651
0.94996679 0.45130205 -0.10182428 251139
0.94996667 0.45412555 -0.10182226 250627
0.94996667 0.456949 -0.10182011 249859
0.94996643 0.45977247 -0.10181797 249091
0.94996631 0.46259591 -0.10181582 248323
0.94996643 0.46541935 -0.10181367 247555
0.94996643 0.46824273 -0.10181153 181250
0.89556932 0.57000065 -0.12807453 6684672
0.90353978 0.56999999 -0.12421501 6684672
0.91142583 0.56999934 -0.12039614 6684672
0.91922951 0.56999868 -0.11661726 8126978
0.92695177 0.56999797 -0.11287779 9503234
0.93459368 0.56999731 -0.10917711 10617603
0.94215667 0.56999671 -0.10551476 11535107
0.94964206 0.56999606 -0.10189009 12321539
0.94997048 0.5726943 -0.10172892 12387075
0.94997036 0.57551706 -0.10172689 12452611
0.94997036 0.5783397 -0.10172462 12518147
0.9499706 0.58116233 -0.10172236 12583683
0.94997048 0.58398503 -0.10172021 12583683
0.9499706 0.58680767 -0.10171807 12649219
0.94997072 0.58963019 -0.1017158 12649219
0.94997072 0.59245282 -0.10171354 12714755
0.94997072 0.59527534 -0.10171151 12715012
0.94997084 0.59809792 -0.10170925 12780548
0.90089273 0.37000307 -0.1287998 26112
0.91330945 0.37000313 -0.12276101 26112
0.92552221 0.37000316 -0.11682147 165122
0.93753564 0.37000322 -0.11097872 172290
0.94935489 0.37000328 -0.10523051 243203
0.94996727 0.37268308 -0.10493058 243459
0.94996715 0.3755106 -0.10492849 243715
0.94996727 0.37833807 -0.10492623 243715
0.94996738 0.38116553 -0.10492396 243971
0.94996738 0.38399297 -0.10492182 244227
0.94996738 0.38682041 -0.10491955 244227
0.9499675 0.38964781 -0.10491741 244483
0.94996762 0.39247519 -0.10491514 244483
0.94996738 0.39530262 -0.104913 244483
0.9499675 0.39812997 -0.10491085 244739
0.94996762 0.40095729 -0.10490859 244739
0.94996786 0.40378457 -0.1049062 244739
0.94996774 0.40661189 -0.10490417 244739
0.94996774 0.40943921 -0.10490191 244483
0.94996786 0.41226646 -0.10489964 245251
0.94996786 0.41509372 -0.10489744 246019
0.94996774 0.41792101 -0.10489535 246531
0.94996786 0.4207482 -0.10489309 312836
0.94996762 0.42357552 -0.10489106 313348
0.9499675 0.42640272 -0.1048888 313860
0.94996738 0.42922992 -0.10488677 314372
0.94996727 0.43205708 -0.10488462 314884
0.94996715 0.43488428 -0.10488254 315140
0.94996715 0.43771145 -0.10488021 315140
0.94996715 0.44053856 -0.10487819 249603
0.94996703 0.44336569 -0.10487604 249603
0.94996691 0.4461928 -0.1048739 249347
0.94996691 0.44901985 -0.10487163 249091
0.94996667 0.4518469 -0.10486948 248579
0.94996667 0.45467398 -0.1048674 248067
0.94996667 0.45750093 -0.10486513 247555
0.94996643 0.46032798 -0.10486305 246787
0.94996643 0.46315497 -0.1048609 246019
0.94996631 0.46598193 -0.10485882 179970
0.94996643 0.46880889 -0.10485649 179202
0.90542614 0.56999987 -0.12644029 6684672
0.91330218 0.56999928 -0.12260985 6684672
0.92109585 0.5699985 -0.11881924 7995906
0.92880833 0.56999785 -0.11506832 9306626
0.93644071 0.56999719 -0.11135638 10420995
0.94399416 0.5699966 -0.10768276 11338499
0.94997025 0.5705654 -0.10477597 12059395
0.94997025 0.57339168 -0.10477364 12059395
0.94997048 0.57621789 -0.10477138 12059395
0.94997048 0.5790441 -0.10476929 12124931
0.94997025 0.58187038 -0.10476708 12190467
0.94997048 0.58469653 -0.10476482 12190467
0.94997048 0.58752269 -0.10476267 12256003
0.94997048 0.59034884 -0.10476041 12256003
0.9499706 0.59317493 -0.10475826 12256003
0.94997072 0.59600103 -0.104756 12321539
0.94997072 0.59882712 -0.10475373 12321539
0.91519022 0.37000319 -0.12497318 26112
0.92738736 0.37000322 -0.11901546 164354
0.93938553 0.37000325 -0.11315489 171522
0.94996691 0.37029871 -0.10798621 242179
0.94996703 0.37312981 -0.10798395 241923
0.94996703 0.37596089 -0.10798174 242179
0.94996715 0.3787919 -0.10797948 242179
0.94996727 0.38162288 -0.10797721 242435
0.94996715 0.38445389 -0.10797501 242435
0.94996727 0.3872849 -0.10797274 242691
0.94996727 0.39011589 -0.1079706 242691
0.94996738 0.39294681 -0.10796833 242691
0.9499675 0.3957777 -0.10796607 242691
0.9499675 0.39860865 -0.10796392 242947
0.94996762 0.40143958 -0.10796165 242947
0.94996762 0.40427044 -0.10795939 242947
0.94996762 0.40710127 -0.10795718 242691
0.94996762 0.40993214 -0.10795504 242691
0.94996774 0.41276297 -0.10795277 242691
0.94996774 0.4155938 -0.10795045 243203
0.94996786 0.41842461 -0.1079483 243971
0.94996762 0.42125541 -0.10794616 244483
0.9499675 0.42408624 -0.10794407 244995
0.94996762 0.42691696 -0.10794175 245507
0.94996738 0.42974776 -0.10793972 246019
0.94996738 0.43257847 -0.10793751 246275
0.94996715 0.43540922 -0.10793543 246531
0.94996715 0.4382399 -0.10793316 246787
0.94996715 0.44107059 -0.10793108 246787
0.94996715 0.44390124 -0.10792881 246787
0.94996691 0.44673193 -0.10792673 246531
0.94996679 0.44956258 -0.10792458 246275
0.94996691 0.45239314 -0.10792238 246019
0.94996667 0.45522371 -0.10792017 245507
0.94996667 0.45805433 -0.10791802 244995
0.94996643 0.46088493 -0.10791588 244483
0.94996643 0.46371543 -0.10791373 178178
0.94996643 0.46654597 -0.10791159 177666
0.94996643 0.46937644 -0.10790944 3648275
0.90731239 0.56999975 -0.12866569 6684672
0.91517854 0.56999916 -0.12482345 6684672
0.92296231 0.56999844 -0.12102139 7799298
0.93066502 0.56999773 -0.11725891 9110018
0.93828762 0.56999713 -0.11353564 10224387
0.94583142 0.56999648 -0.10985088 11141891
0.94997013 0.57126093 -0.10782826 11600643
0.94997025 0.57409072 -0.10782599 11666179
0.94997025 0.57692057 -0.10782385 11731715
0.94997025 0.57975036 -0.10782158 11731715
0.94997048 0.58258009 -0.10781932 11731715
0.94997048 0.58540982 -0.10781717 11797251
0.94997036 0.58823955 -0.10781497 11797251
0.94997048 0.59106928 -0.1078127 11862787
0.9499706 0.59389889 -0.1078105 11862787
0.94997048 0.59672862 -0.10780823 11862787
0.9499706 0.59955823 -0.10780597 11862787
0.91707098 0.37000325 -0.12718529 26112
0.92925239 0.37000331 -0.12120944 163586
0.9412353 0.37000334 -0.11533105 170754
0.94996679 0.37074304 -0.11104715 240643
0.94996691 0.37357765 -0.11104488 240387
0.94996703 0.37641227 -0.11104262 240643
0.94996691 0.37924689 -0.11104035 240643
0.94996703 0.38208145 -0.11103809 240899
0.94996715 0.38491601 -0.11103582 240899
0.94996715 0.38775057 -0.11103368 240899
0.94996727 0.39058512 -0.11103141 240899
0.94996727 0.39341959 -0.11102915 240899
0.94996727 0.39625415 -0.111027 240899
0.94996738 0.39908862 -0.11102468 240899
0.94996738 0.40192309 -0.11102247 240899
0.94996738 0.40475753 -0.11102027 240899
0.9499675 0.40759188 -0.111018 240899
0.94996738 0.41042638 -0.1110158 240899
0.94996762 0.41326073 -0.11101353 240643
0.94996762 0.41609508 -0.11101127 240643
0.94996762 0.41892946 -0.11100912 241155
0.94996774 0.42176381 -0.1110068 241667
0.9499675 0.42459822 -0.11100471 242179
0.9499675 0.42743254 -0.11100256 242435
0.94996738 0.43026683 -0.1110003 242947
0.94996738 0.43310109 -0.11099803 243203
0.94996727 0.43593541 -0.11099601 243459
0.94996703 0.43876976 -0.11099386 243715
0.94996715 0.44160396 -0.1109916 243715
0.94996691 0.44443822 -0.11098939 243715
0.94996691 0.44727242 -0.11098731 243715
0.94996667 0.45010662 -0.11098516 243459
0.94996679 0.45294082 -0.11098289 243203
0.94996667 0.45577496 -0.11098075 242691
0.94996667 0.45860907 -0.11097848 176898
0.94996655 0.46144325 -0.1109764 176386
0.94996631 0.46427736 -0.11097419 175874
0.94996643 0.46711144 -0.11097205 175362
0.94996631 0.46994552 -0.1109699 7184163
0.91705489 0.56999904 -0.12703705 6684672
0.92482877 0.56999832 -0.12322336 7602690
0.9325217 0.56999761 -0.1194495 8913410
0.94013453 0.56999701 -0.11571479 10027522
0.94766891 0.56999636 -0.11201876 11010819
0.94997001 0.57195824 -0.11088836 11272963
0.94997025 0.57479161 -0.1108861 11272963
0.94997013 0.57762498 -0.11088389 11272963
0.94997025 0.58045828 -0.11088163 11338499
0.94997013 0.58329165 -0.11087942 11338499
0.94997025 0.58612502 -0.11087716 11338499
0.94997048 0.58895826 -0.11087489 11404035
0.94997036 0.59179157 -0.11087275 11404035
0.94997048 0.5946247 -0.11087042 11404035
0.94997048 0.59745795 -0.11086822 11404035
0.91895151 0.37000334 -0.12939745 26112
0.93111753 0.37000334 -0.12340337 163074
0.94308519 0.3700034 -0.1175071 169986
0.94996667 0.3711884 -0.11411577 238851
0.94996667 0.3740266 -0.11411357 238851
0.94996679 0.37686479 -0.11411124 239107
0.94996679 0.37970302 -0.11410904 239107
0.94996691 0.38254112 -0.11410677 239107
0.94996691 0.38537931 -0.11410451 239107
0.94996703 0.38821742 -0.11410224 239107
0.94996703 0.39105552 -0.1141001 239107
0.94996715 0.39389363 -0.11409777 239107
0.94996715 0.3967317 -0.11409545 239107
0.94996727 0.39956975 -0.11409318 239107
0.94996715 0.4024078 -0.11409104 239107
0.94996738 0.40524578 -0.11408877 239107
0.9499675 0.40808377 -0.11408651 238851
0.94996727 0.41092181 -0.1140843 238851
0.94996738 0.41375974 -0.11408204 238595
0.9499675 0.41659766 -0.11407971 238595
0.94996774 0.41943559 -0.11407745 238339
0.94996762 0.42227355 -0.11407518 238851
0.94996762 0.42511147 -0.1140731 239363
0.94996738 0.4279494 -0.11407089 239619
0.9499675 0.43078724 -0.11406863 240131
0.94996727 0.4336251 -0.11406654 240387
0.94996727 0.436463 -0.11406434 240643
0.94996703 0.43930086 -0.11406219 240643
0.94996715 0.44213867 -0.11405993 240899
0.94996715 0.44497645 -0.11405766 240899
0.94996691 0.44781426 -0.11405557 240643
0.94996667 0.45065209 -0.11405337 240643
0.94996679 0.45348984 -0.11405122 174850
0.94996667 0.45632753 -0.11404902 174594
0.94996667 0.45916525 -0.11404681 174338
0.94996643 0.46200296 -0.11404461 173826
0.94996643 0.46484068 -0.1140424 173314
0.94996643 0.46767831 -0.11404026 173058
0.91893113 0.56999886 -0.12925059 6684672
0.92669535 0.5699982 -0.12542522 7471618
0.93437815 0.56999755 -0.12163997 8716802
0.94198155 0.56999683 -0.11789393 9830914
0.94950628 0.56999612 -0.1141867 10814211
0.94997013 0.57265735 -0.11395609 10879747
0.94997025 0.57549429 -0.11395383 10879747
0.94997001 0.57833129 -0.11395168 10879747
0.94997013 0.58116817 -0.11394936 10879747
0.94997025 0.584005 -0.11394715 10945283
0.94997036 0.58684188 -0.11394483 10945283
0.94997025 0.58967876 -0.11394262 10945283
0.94997025 0.59251559 -0.11394036 10945283
0.94997048 0.59535229 -0.11393809 10945283
0.94997036 0.59818923 -0.11393589 10945283
0.93298244 0.37000346 -0.12559736 162306
0.94493496 0.37000343 -0.11968321 169218
0.94996643 0.37163493 -0.11719227 237315
0.94996667 0.3744767 -0.11719 237315
0.94996679 0.37731847 -0.11718774 237315
0.94996691 0.38016024 -0.11718541 237315
0.94996679 0.38300198 -0.11718309 237315
0.94996691 0.38584375 -0.11718094 237315
0.94996691 0.38868544 -0.11717868 237315
0.94996691 0.39152715 -0.11717635 237315
0.94996691 0.39436883 -0.11717403 237315
0.94996703 0.39721048 -0.11717176 237315
0.94996715 0.4000521 -0.1171695 237315
0.94996715 0.40289372 -0.11716735 237059
0.94996715 0.40573531 -0.11716503 237059
0.94996715 0.40857691 -0.1171627 237059
0.94996738 0.41141844 -0.11716044 236803
0.94996738 0.41426003 -0.11715829 236547
0.94996738 0.41710153 -0.11715603 236547
0.9499675 0.41994303 -0.11715376 236291
0.94996762 0.42278454 -0.11715144 236291
0.9499675 0.42562604 -0.11714911 236547
0.9499675 0.42846754 -0.11714697 236803
0.94996738 0.43130895 -0.11714476 237059
0.9499675 0.4341504 -0.11714256 237315
0.94996727 0.4369919 -0.11714029 237571
0.94996715 0.43983331 -0.11713815 237827
0.94996715 0.44267473 -0.117136 237827
0.94996703 0.44551611 -0.11713374 237827
0.94996691 0.44835749 -0.11713159 172290
0.94996679 0.45119888 -0.11712939 172290
0.94996667 0.45404023 -0.11712718 172034
0.94996679 0.45688149 -0.11712492 171778
0.94996655 0.45972279 -0.11712277 171522
0.94996655 0.46256411 -0.11712056 171266
0.94996643 0.46540537 -0.11711842 171010
0.94996643 0.46824664 -0.11711621 170498
0.92856157 0.56999803 -0.12762725 7274753
0.93623483 0.56999737 -0.12383044 8585730
0.94382858 0.56999671 -0.12007308 9634306
0.94996989 0.5705176 -0.11703384 10486531
0.94997001 0.57335812 -0.11703157 10420995
0.94997013 0.57619864 -0.11702937 10486531
0.94997013 0.57903916 -0.1170271 10486531
0.94997025 0.58187968 -0.11702466 10486531
0.94997001 0.58472019 -0.11702263 10486531
0.94997025 0.58756065 -0.11702037 10486531
0.94997036 0.59040105 -0.11701804 10486531
0.94997036 0.59324139 -0.11701578 10486531
0.94997036 0.59608179 -0.11701345 10486531
0.94997048 0.59892219 -0.11701119 10420995
0.93484747 0.37000349 -0.12779117 161794
0.94678462 0.37000355 -0.12185919 168962
0.94996655 0.37208259 -0.12027633 170242
0.94996655 0.37492797 -0.12027407 170242
0.94996667 0.37777334 -0.1202718 170242
0.94996667 0.38061863 -0.12026954 170242
0.94996679 0.38346404 -0.12026727 170242
0.94996679 0.38630933 -0.12026501 170242
0.94996691 0.38915461 -0.12026274 169986
0.94996703 0.3919999 -0.12026048 235523
0.94996691 0.39484519 -0.12025815 235523
0.94996703 0.39769045 -0.12025583 235523
0.94996715 0.40053567 -0.12025356 235267
0.94996715 0.40338087 -0.1202513 235267
0.94996703 0.40622607 -0.12024903 235011
0.94996715 0.40907124 -0.12024677 235011
0.94996727 0.41191638 -0.12024438 234755
0.94996715 0.41476157 -0.1202423 168962
0.94996727 0.41760668 -0.12024003 168962
0.94996738 0.42045176 -0.12023771 168706
0.94996738 0.42329684 -0.12023544 168450
0.9499675 0.42614192 -0.12023306 168450
0.9499675 0.428987 -0.12023085 168706
0.9499675 0.43183202 -0.12022865 168962
0.9499675 0.43467703 -0.12022638 168962
0.94996715 0.43752211 -0.12022424 169218
0.94996715 0.44036716 -0.12022203 169474
0.94996715 0.44321215 -0.12021971 169474
0.94996703 0.44605711 -0.12021756 169474
0.94996691 0.44890213 -0.12021542 169474
0.94996691 0.45174706 -0.12021315 169474
0.94996679 0.45459199 -0.12021095 169218
0.94996679 0.45743686 -0.12020874 169218
0.94996667 0.46028176 -0.12020653 168962
0.94996643 0.46312666 -0.12020433 168706
0.94996655 0.4659715 -0.12020218 168450
0.94996643 0.46881634 -0.1201998 168194
0.93042791 0.56999791 -0.12982917 7143681
0.9380914 0.56999725 -0.12602091 8389122
0.94567537 0.5699966 -0.12225223 9503234
0.94996989 0.57121664 -0.12011713 10027779
0.94996989 0.5740608 -0.12011486 10027779
0.94997001 0.57690489 -0.12011254 10027779
0.94997001 0.57974899 -0.12011027 10027779
0.94997013 0.58259308 -0.12010813 10027779
0.94997025 0.58543712 -0.1201058 10027779
0.94997025 0.58828115 -0.12010336 10027779
0.94997025 0.59112519 -0.12010121 10027779
0.94997025 0.59396911 -0.12009895 10027779
0.94997048 0.59681308 -0.12009662 9962243
0.94997048 0.59965712 -0.12009436 9962243
0.93671262 0.37000355 -0.12998497 95489
0.94863427 0.37000358 -0.1240353 168194
0.94996643 0.37253132 -0.12336838 168450
0.94996643 0.37538037 -0.12336618 168450
0.94996655 0.37822932 -0.12336385 168450
0.94996655 0.38107824 -0.12336147 168450
0.94996667 0.38392717 -0.1233592 168450
0.94996655 0.38677612 -0.12335694 168450
0.94996679 0.38962501 -0.12335461 168194
0.94996679 0.39247391 -0.12335229 168194
0.94996691 0.39532277 -0.12335014 168194
0.94996691 0.39817163 -0.12334776 167938
0.94996691 0.40102044 -0.12334549 167938
0.94996703 0.40386927 -0.12334323 167682
0.94996691 0.40671805 -0.1233409 167682
0.94996715 0.40956685 -0.12333858 167426
0.94996715 0.41241559 -0.12333632 167170
0.94996727 0.41526437 -0.12333405 167170
0.94996715 0.41811311 -0.12333184 166914
0.94996715 0.4209618 -0.12332952 166658
0.94996738 0.42381045 -0.12332714 166402
0.94996738 0.42665917 -0.12332493 166146
0.9499675 0.42950779 -0.12332261 166146
0.94996762 0.43235642 -0.12332022 166146
0.94996738 0.43520507 -0.12331814 166402
0.94996727 0.43805373 -0.12331593 166402
0.94996715 0.44090232 -0.12331367 166658
0.94996715 0.44375095 -0.1233114 166658
0.94996715 0.44659951 -0.12330925 166658
0.94996691 0.44944811 -0.12330699 166658
0.94996679 0.45229664 -0.12330478 166658
0.94996691 0.45514515 -0.12330258 166658
0.94996679 0.45799363 -0.12330025 166658
0.94996667 0.46084216 -0.12329805 166402
0.94996655 0.46369064 -0.1232959 166146
0.94996643 0.46653908 -0.12329364 166146
0.94996655 0.4693875 -0.12329137 3640082
0.93994796 0.56999707 -0.12821126 8258050
0.94752204 0.56999642 -0.12443137 9372162
0.94996977 0.57191736 -0.12320828 9634306
0.94997001 0.57476509 -0.12320596 9634306
0.94996989 0.57761282 -0.12320364 9634306
0.94997001 0.58046049 -0.12320137 9568770
0.94997001 0.58330822 -0.12319911 9568770
0.94997013 0.58615589 -0.12319672 9568770
0.94997013 0.58900356 -0.12319458 9568770
0.94997025 0.59185123 -0.12319231 9568770
0.94997025 0.59469873 -0.12318987 9503234
0.94997025 0.59754634 -0.12318766 9503234
