# .PCD v0.7 - Point Cloud Data file format
VERSION 0.7
FIELDS x y z normal_x normal_y normal_z curvature
SIZE 4 4 4 4 4 4 4
TYPE F F F F F F F
COUNT 1 1 1 1 1 1 1
WIDTH 832
HEIGHT 1
VIEWPOINT 0 0 0 1 0 0 0
POINTS 832
DATA ascii
0.92106545 -0.074420482 -0.00081330538 0 0 0 -7.7512552e+30
0.92754555 -0.071270324 0.0018210411 0 0 0 -7.7512552e+30
0.93285489 -0.06821467 0.0039798021 0 0 0 -7.7512552e+30
0.93766356 -0.065207928 0.0059350729 0 0 0 -7.7512552e+30
0.94158125 -0.062269345 0.0075284243 0 0 0 -7.7512552e+30
0.94472158 -0.059387751 0.008805871 0 0 0 -7.7512552e+30
0.94778228 -0.056522034 0.010051012 0 0 0 -7.7512552e+30
0.95057845 -0.053681158 0.011188745 0 0 0 -7.7512552e+30
0.95311224 -0.050863534 0.012219787 0 0 0 -7.7512552e+30
0.95562911 -0.048056155 0.013244033 0 0 0 -7.7512552e+30
0.95788634 -0.045269892 0.014162779 0 0 0 -7.7512552e+30
0.9599179 -0.04250183 0.014989853 0 0 0 -7.7512552e+30
0.96185303 -0.039745338 0.015777588 0 0 0 -7.7512552e+30
0.96344686 -0.037009597 0.016426921 0 0 0 -7.7512552e+30
0.96486831 -0.03428632 0.01700604 0 0 0 -7.7512552e+30
0.96606112 -0.031576559 0.017492294 0 0 0 -7.7512552e+30
0.96721292 -0.028872659 0.017961979 0 0 0 -7.7512552e+30
0.9681325 -0.026180534 0.01833725 0 0 0 -7.7512552e+30
0.96900916 -0.02349315 0.018695116 0 0 0 -7.7512552e+30
0.96980143 -0.020811452 0.01901865 0 0 0 -7.7512552e+30
0.97040689 -0.018137692 0.019266367 0 0 0 -7.7512552e+30
0.97101188 -0.015466215 0.019513845 0 0 0 -7.7512552e+30
0.97153819 -0.012798799 0.019729376 0 0 0 -7.7512552e+30
0.97197223 -0.01013531 0.019907355 0 0 0 -7.7512552e+30
0.9723947 -0.0074736737 0.020080686 0 0 0 -7.7512552e+30
0.97267926 -0.0048160162 0.020198107 0 0 0 -7.7512552e+30
0.97293031 -0.002159955 0.0203017 0 0 0 -7.7512552e+30
0.97306633 0.00049358606 0.020358682 0 0 0 -7.7512552e+30
0.97314858 0.0031459704 0.020393848 0 0 0 -7.7512552e+30
0.9731344 0.0057970723 0.020389795 0 0 0 -7.7512552e+30
0.97295117 0.0084468443 0.020317078 0 0 0 -7.7512552e+30
0.97256255 0.011095999 0.020160913 0 0 0 -7.7512552e+30
0.97222698 0.013746815 0.020026326 0 0 0 -7.7512552e+30
0.97188187 0.01639884 0.019887924 0 0 0 -7.7512552e+30
0.9712764 0.019051956 0.019643545 0 0 0 -7.7512552e+30
0.9706707 0.021707309 0.019399285 0 0 0 -7.7512552e+30
0.97007084 0.024364877 0.01915735 0 0 0 -7.7512552e+30
0.96918666 0.027026057 0.018799901 0 0 0 -7.7512552e+30
0.96828985 0.029690593 0.018437266 0 0 0 -7.7512552e+30
0.96739185 0.032358453 0.018074274 0 0 0 -7.7512552e+30
0.96639466 0.035030678 0.01767087 0 0 0 -7.7512552e+30
0.96525538 0.037708342 0.017209888 0 0 0 -7.7512552e+30
0.96414149 0.040389866 0.016759098 0 0 0 -7.7512552e+30
0.96290588 0.043077469 0.016258955 0 0 0 -7.7512552e+30
0.96157646 0.045771327 0.015720665 0 0 0 -7.7512552e+30
0.95997894 0.048475415 0.015073419 0 0 0 -7.7512552e+30
0.95820677 0.051189192 0.014355302 0 0 0 -7.7512552e+30
0.95619571 0.053915158 0.013540149 0 0 0 -7.7512552e+30
0.9538871 0.056656122 0.012604117 0 0 0 -7.7512552e+30
0.95147896 0.059408359 0.011627674 0 0 0 -7.7512552e+30
0.94886351 0.062175542 0.010567129 0 0 0 -7.7512552e+30
0.94614828 0.064955525 0.0094658136 0 0 0 -7.7512552e+30
0.9432317 0.067752182 0.0082828999 0 0 0 -7.7512552e+30
0.94016957 0.070564695 0.0070409179 0 0 0 -7.7512552e+30
0.93666458 0.073404737 0.0056189299 0 0 0 -7.7512552e+30
0.9326098 0.076278873 0.0039737225 0 0 0 -7.7512552e+30
0.92730546 0.079218306 0.0018208027 0 0 0 -7.7512552e+30
0.92000973 0.082261212 -0.0011407733 0 0 0 -7.7512552e+30
0.91169047 0.085376158 -0.0045181513 0 0 0 -7.7512552e+30
0.90947556 -0.078045003 -0.0083702803 0 0 0 -7.7512552e+30
0.92039442 -0.074573711 -0.0039117932 0 0 0 -7.7512552e+30
0.92714 -0.071402073 -0.0011566877 0 0 0 -7.7512552e+30
0.93257225 -0.068334602 0.0010623932 0 0 0 -7.7512552e+30
0.93741 -0.065322064 0.0030386448 0 0 0 -7.7512552e+30
0.94142485 -0.062374003 0.004679203 0 0 0 -7.7512552e+30
0.94456935 -0.059488431 0.005964458 0 0 0 -7.7512552e+30
0.94762397 -0.056619324 0.0072129369 0 0 0 -7.7512552e+30
0.95045137 -0.053773165 0.0083687305 0 0 0 -7.7512552e+30
0.95298862 -0.050951771 0.0094060898 0 0 0 -7.7512552e+30
0.9555068 -0.048140734 0.0104357 0 0 0 -7.7512552e+30
0.95777452 -0.045350432 0.011363029 0 0 0 -7.7512552e+30
0.95982635 -0.042577974 0.012202144 0 0 0 -7.7512552e+30
0.96176362 -0.039817914 0.012994647 0 0 0 -7.7512552e+30
0.96338749 -0.037077539 0.01365912 0 0 0 -7.7512552e+30
0.96481156 -0.03435079 0.014242113 0 0 0 -7.7512552e+30
0.96600604 -0.031637624 0.014731407 0 0 0 -7.7512552e+30
0.96717238 -0.028929876 0.015209198 0 0 0 -7.7512552e+30
0.96809256 -0.026234435 0.015586495 0 0 0 -7.7512552e+30
0.9689703 -0.023543725 0.015946388 0 0 0 -7.7512552e+30
0.96977162 -0.020858483 0.016275167 0 0 0 -7.7512552e+30
0.97037733 -0.01818146 0.016524076 0 0 0 -7.7512552e+30
0.97098243 -0.015506724 0.016772866 0 0 0 -7.7512552e+30
0.97151148 -0.012835996 0.016990542 0 0 0 -7.7512552e+30
0.97194612 -0.010169253 0.017169595 0 0 0 -7.7512552e+30
0.97237682 -0.0075042173 0.017347097 0 0 0 -7.7512552e+30
0.97266209 -0.0048433356 0.017465234 0 0 0 -7.7512552e+30
0.97291708 -0.0021839924 0.017571092 0 0 0 -7.7512552e+30
0.97305727 0.00047280826 0.0176301 0 0 0 -7.7512552e+30
0.97313595 0.0031283442 0.017663896 0 0 0 -7.7512552e+30
0.9731276 0.0057827057 0.017662168 0 0 0 -7.7512552e+30
0.97294903 0.0084357047 0.017591 0 0 0 -7.7512552e+30
0.97256923 0.011088093 0.017437696 0 0 0 -7.7512552e+30
0.97222543 0.013742039 0.017299175 0 0 0 -7.7512552e+30
0.97188389 0.016397253 0.017161489 0 0 0 -7.7512552e+30
0.97127748 0.019053547 0.016915679 0 0 0 -7.7512552e+30
0.97067094 0.021712082 0.016669869 0 0 0 -7.7512552e+30
0.97007489 0.024372825 0.016428411 0 0 0 -7.7512552e+30
0.96918714 0.027037205 0.016067803 0 0 0 -7.7512552e+30
0.96828926 0.029704943 0.015703022 0 0 0 -7.7512552e+30
0.9673903 0.032376014 0.015337825 0 0 0 -7.7512552e+30
0.96639359 0.035051435 0.014932811 0 0 0 -7.7512552e+30
0.96527791 0.037732024 0.01447928 0 0 0 -7.7512552e+30
0.96416271 0.04041674 0.014025927 0 0 0 -7.7512552e+30
0.96291542 0.043107718 0.013518572 0 0 0 -7.7512552e+30
0.96159506 0.045804627 0.012981415 0 0 0 -7.7512552e+30
0.95998991 0.048512068 0.012328148 0 0 0 -7.7512552e+30
0.95822775 0.051228866 0.011610687 0 0 0 -7.7512552e+30
0.95620477 0.053958341 0.010786891 0 0 0 -7.7512552e+30
0.95389605 0.056702584 0.0098463893 0 0 0 -7.7512552e+30
0.95148122 0.059458286 0.0088626146 0 0 0 -7.7512552e+30
0.94886291 0.062228881 0.0077958107 0 0 0 -7.7512552e+30
0.94614828 0.065012179 0.0066897273 0 0 0 -7.7512552e+30
0.94322896 0.067812279 0.0055001378 0 0 0 -7.7512552e+30
0.94014549 0.070628911 0.0042434931 0 0 0 -7.7512552e+30
0.93664491 0.073472247 0.0028166771 0 0 0 -7.7512552e+30
0.93257248 0.076350547 0.0011565089 0 0 0 -7.7512552e+30
0.92726088 0.079293869 -0.0010093451 0 0 0 -7.7512552e+30
0.9199959 0.082339235 -0.0039724112 0 0 0 -7.7512552e+30
0.91162682 0.085460149 -0.0073860884 0 0 0 -7.7512552e+30
0.90834796 -0.078234076 -0.011686206 0 0 0 -7.7512552e+30
0.91972136 -0.074727461 -0.0070204139 0 0 0 -7.7512552e+30
0.92673337 -0.071534216 -0.0041431189 0 0 0 -7.7512552e+30
0.93228912 -0.068454869 -0.0018630028 0 0 0 -7.7512552e+30
0.93715549 -0.06543652 0.00013434887 0 0 0 -7.7512552e+30
0.94123077 -0.062481031 0.001807332 0 0 0 -7.7512552e+30
0.94441676 -0.059589379 0.0031155348 0 0 0 -7.7512552e+30
0.94746542 -0.056716867 0.0043674707 0 0 0 -7.7512552e+30
0.95032394 -0.053865418 0.0055415034 0 0 0 -7.7512552e+30
0.95286489 -0.051040225 0.0065851212 0 0 0 -7.7512552e+30
0.95538414 -0.048225522 0.0076200962 0 0 0 -7.7512552e+30
0.95766258 -0.045431174 0.0085560083 0 0 0 -7.7512552e+30
0.95973444 -0.042654306 0.0094074607 0 0 0 -7.7512552e+30
0.96167421 -0.039890669 0.010204673 0 0 0 -7.7512552e+30
0.96331334 -0.037146233 0.010878563 0 0 0 -7.7512552e+30
0.96475482 -0.034415416 0.011471391 0 0 0 -7.7512552e+30
0.96595073 -0.031698838 0.011963487 0 0 0 -7.7512552e+30
0.96713173 -0.028987246 0.012449503 0 0 0 -7.7512552e+30
0.96805263 -0.02628847 0.012828946 0 0 0 -7.7512552e+30
0.96893167 -0.023594419 0.013191104 0 0 0 -7.7512552e+30
0.96973979 -0.020905687 0.013524294 0 0 0 -7.7512552e+30
0.97034609 -0.018225374 0.013774633 0 0 0 -7.7512552e+30
0.97095191 -0.015547352 0.014024734 0 0 0 -7.7512552e+30
0.97148442 -0.01287329 0.014244795 0 0 0 -7.7512552e+30
0.97191978 -0.010203281 0.014425159 0 0 0 -7.7512552e+30
0.97235465 -0.007534923 0.014605165 0 0 0 -7.7512552e+30
0.97264457 -0.0048707239 0.014725745 0 0 0 -7.7512552e+30
0.97289467 -0.0022082347 0.014829993 0 0 0 -7.7512552e+30
0.97304809 0.0004519783 0.014894724 0 0 0 -7.7512552e+30
0.97312355 0.0031106807 0.014927387 0 0 0 -7.7512552e+30
0.97312093 0.0057683075 0.014928043 0 0 0 -7.7512552e+30
0.97294676 0.0084245373 0.014858365 0 0 0 -7.7512552e+30
0.97257996 0.011080196 0.014709711 0 0 0 -7.7512552e+30
0.97222388 0.013737252 0.014565468 0 0 0 -7.7512552e+30
0.9718858 0.016395664 0.014428496 0 0 0 -7.7512552e+30
0.97127891 0.019055143 0.014181435 0 0 0 -7.7512552e+30
0.97067142 0.021716867 0.013934076 0 0 0 -7.7512552e+30
0.97007191 0.024380814 0.013689995 0 0 0 -7.7512552e+30
0.96918738 0.027048383 0.013329029 0 0 0 -7.7512552e+30
0.96828854 0.029719327 0.012962222 0 0 0 -7.7512552e+30
0.96738839 0.032393612 0.012594819 0 0 0 -7.7512552e+30
0.96641517 0.035072006 0.012197495 0 0 0 -7.7512552e+30
0.96530044 0.037755765 0.011742234 0 0 0 -7.7512552e+30
0.96417665 0.040443785 0.011283159 0 0 0 -7.7512552e+30
0.96292496 0.043138035 0.010771632 0 0 0 -7.7512552e+30
0.96161342 0.045838006 0.010235667 0 0 0 -7.7512552e+30
0.96000087 0.04854881 0.0095763206 0 0 0 -7.7512552e+30
0.95824862 0.051268637 0.0088595152 0 0 0 -7.7512552e+30
0.95621407 0.054001629 0.0080270767 0 0 0 -7.7512552e+30
0.95391142 0.056748994 0.0070847273 0 0 0 -7.7512552e+30
0.95148373 0.059508331 0.0060910583 0 0 0 -7.7512552e+30
0.94886315 0.062282316 0.0050182939 0 0 0 -7.7512552e+30
0.94614899 0.065068938 0.0039072037 0 0 0 -7.7512552e+30
0.94322622 0.067872517 0.0027105808 0 0 0 -7.7512552e+30
0.94012129 0.070693292 0.001439333 0 0 0 -7.7512552e+30
0.936625 0.07353992 7.5697899e-06 0 0 0 -7.7512552e+30
0.93253505 0.076422401 -0.0016676188 0 0 0 -7.7512552e+30
0.92721653 0.079369619 -0.0038464665 0 0 0 -7.7512552e+30
0.91998196 0.082417443 -0.0068109035 0 0 0 -7.7512552e+30
0.91156292 0.08554434 -0.010261059 0 0 0 -7.7512552e+30
0.90731549 -0.078417324 -0.014974236 0 0 0 -7.7512552e+30
0.91904593 -0.074881703 -0.010139406 0 0 0 -7.7512552e+30
0.92632532 -0.07166674 -0.0071384907 0 0 0 -7.7512552e+30
0.93200517 -0.068575472 -0.0047966838 0 0 0 -7.7512552e+30
0.93690038 -0.065551281 -0.0027780533 0 0 0 -7.7512552e+30
0.94099784 -0.062590525 -0.0010881424 0 0 0 -7.7512552e+30
0.9442637 -0.059690602 0.000259161 0 0 0 -7.7512552e+30
0.94730639 -0.056814671 0.001514554 0 0 0 -7.7512552e+30
0.95019627 -0.053957909 0.0027068853 0 0 0 -7.7512552e+30
0.95274055 -0.051128909 0.0037568808 0 0 0 -7.7512552e+30
0.95526135 -0.048310541 0.0047972202 0 0 0 -7.7512552e+30
0.95755017 -0.045512132 0.0057419538 0 0 0 -7.7512552e+30
0.95964241 -0.042730838 0.0066056848 0 0 0 -7.7512552e+30
0.96158457 -0.03996361 0.007407546 0 0 0 -7.7512552e+30
0.96322608 -0.03721562 0.0080856085 0 0 0 -7.7512552e+30
0.96469796 -0.034480207 0.0086938143 0 0 0 -7.7512552e+30
0.9658953 -0.031760208 0.0091887712 0 0 0 -7.7512552e+30
0.96709085 -0.029044753 0.0096831322 0 0 0 -7.7512552e+30
0.96801257 -0.02634264 0.010064602 0 0 0 -7.7512552e+30
0.96889329 -0.02364522 0.010429204 0 0 0 -7.7512552e+30
0.9697088 -0.020952983 0.010766864 0 0 0 -7.7512552e+30
0.97031474 -0.018269403 0.011018276 0 0 0 -7.7512552e+30
0.97092152 -0.015588084 0.011269987 0 0 0 -7.7512552e+30
0.971457 -0.012910685 0.011492372 0 0 0 -7.7512552e+30
0.97189343 -0.010237392 0.011673927 0 0 0 -7.7512552e+30
0.9723289 -0.0075657666 0.011855006 0 0 0 -7.7512552e+30
0.97262621 -0.0048981886 0.011979222 0 0 0 -7.7512552e+30
0.97287214 -0.0022325348 0.012082338 0 0 0 -7.7512552e+30
0.97303915 0.00043109991 0.01215291 0 0 0 -7.7512552e+30
0.97311139 0.0030929763 0.012184381 0 0 0 -7.7512552e+30
0.97311425 0.0057538729 0.012187362 0 0 0 -7.7512552e+30
0.97294474 0.0084133437 0.012119293 0 0 0 -7.7512552e+30
0.97259092 0.011072278 0.011975169 0 0 0 -7.7512552e+30
0.97222245 0.013732454 0.011825204 0 0 0 -7.7512552e+30
0.97188556 0.016394066 0.011688113 0 0 0 -7.7512552e+30
0.9712801 0.019056741 0.011440516 0 0 0 -7.7512552e+30
0.97067189 0.021721663 0.011191607 0 0 0 -7.7512552e+30
0.97006631 0.024388829 0.01094389 0 0 0 -7.7512552e+30
0.96918786 0.027059585 0.010583758 0 0 0 -7.7512552e+30
0.96828818 0.029733744 0.010214925 0 0 0 -7.7512552e+30
0.96739328 0.032411203 0.0098479986 0 0 0 -7.7512552e+30
0.96643901 0.035092603 0.0094566345 0 0 0 -7.7512552e+30
0.96532297 0.037779555 0.008998692 0 0 0 -7.7512552e+30
0.9641875 0.040470935 0.0085326433 0 0 0 -7.7512552e+30
0.96293831 0.043168366 0.0080197453 0 0 0 -7.7512552e+30
0.96163201 0.045871459 0.0074834824 0 0 0 -7.7512552e+30
0.96001208 0.048585638 0.0068178773 0 0 0 -7.7512552e+30
0.9582696 0.051308505 0.0061018467 0 0 0 -7.7512552e+30
0.95622313 0.054045022 0.0052605867 0 0 0 -7.7512552e+30
0.95392656 0.056795523 0.00431633 0 0 0 -7.7512552e+30
0.95148814 0.059558436 0.003313601 0 0 0 -7.7512552e+30
0.94886744 0.062335752 0.0022358298 0 0 0 -7.7512552e+30
0.94614983 0.06512583 0.0011180639 0 0 0 -7.7512552e+30
0.94322336 0.067932904 -8.5651875e-05 0 0 0 -7.7512552e+30
0.94009686 0.070757821 -0.0013717413 0 0 0 -7.7512552e+30
0.93660533 0.073607765 -0.0028082132 0 0 0 -7.7512552e+30
0.9324975 0.076494433 -0.004498601 0 0 0 -7.7512552e+30
0.92717183 0.079445556 -0.0066906214 0 0 0 -7.7512552e+30
0.91996813 0.082495831 -0.0096563101 0 0 0 -7.7512552e+30
0.9114989 0.085628748 -0.013143182 0 0 0 -7.7512552e+30
0.90627909 -0.078601256 -0.018274665 0 0 0 -7.7512552e+30
0.91839409 -0.075034812 -0.0132581 0 0 0 -7.7512552e+30
0.92591643 -0.071799658 -0.010142684 0 0 0 -7.7512552e+30
0.93172026 -0.068696417 -0.007738471 0 0 0 -7.7512552e+30
0.93664467 -0.065666363 -0.0056984425 0 0 0 -7.7512552e+30
0.94076443 -0.062700301 -0.0039913654 0 0 0 -7.7512552e+30
0.94411016 -0.059792079 -0.002604723 0 0 0 -7.7512552e+30
0.94714689 -0.056912728 -0.0013458729 0 0 0 -7.7512552e+30
0.95006812 -0.054050639 -0.00013506413 0 0 0 -7.7512552e+30
0.95261598 -0.051217839 0.0009213686 0 0 0 -7.7512552e+30
0.95513821 -0.048395768 0.0019671917 0 0 0 -7.7512552e+30
0.95743775 -0.045593284 0.0029207468 0 0 0 -7.7512552e+30
0.9595499 -0.042807557 0.0037967563 0 0 0 -7.7512552e+30
0.96149468 -0.04003673 0.0046035051 0 0 0 -7.7512552e+30
0.96313822 -0.037285186 0.0052855015 0 0 0 -7.7512552e+30
0.96464086 -0.034545161 0.0059092045 0 0 0 -7.7512552e+30
0.96583974 -0.031821728 0.0064072609 0 0 0 -7.7512552e+30
0.96703684 -0.029102853 0.0069044828 0 0 0 -7.7512552e+30
0.96797299 -0.026396921 0.0072937012 0 0 0 -7.7512552e+30
0.9688549 -0.023696156 0.0076605082 0 0 0 -7.7512552e+30
0.96967769 -0.021000391 0.0080028176 0 0 0 -7.7512552e+30
0.97028351 -0.018313536 0.0082552433 0 0 0 -7.7512552e+30
0.97089076 -0.015628917 0.0085084438 0 0 0 -7.7512552e+30
0.97142935 -0.012948168 0.0087330341 0 0 0 -7.7512552e+30
0.97186708 -0.010271585 0.0089160204 0 0 0 -7.7512552e+30
0.97230291 -0.0075966902 0.0090981722 0 0 0 -7.7512552e+30
0.9726032 -0.0049258042 0.0092241764 0 0 0 -7.7512552e+30
0.97286892 -0.0022565927 0.0093359947 0 0 0 -7.7512552e+30
0.97303009 0.00041017123 0.0094043612 0 0 0 -7.7512552e+30
0.97309899 0.0030752253 0.0094347 0 0 0 -7.7512552e+30
0.97310758 0.005739403 0.0094399452 0 0 0 -7.7512552e+30
0.97294247 0.0084021231 0.0093734264 0 0 0 -7.7512552e+30
0.97260177 0.011064342 0.0092341304 0 0 0 -7.7512552e+30
0.9722209 0.013727643 0.0090782642 0 0 0 -7.7512552e+30
0.97188365 0.01639246 0.0089404583 0 0 0 -7.7512552e+30
0.97128141 0.019058345 0.0086929202 0 0 0 -7.7512552e+30
0.97067249 0.02172647 0.0084426403 0 0 0 -7.7512552e+30
0.97006309 0.024396857 0.0081922412 0 0 0 -7.7512552e+30
0.96919656 0.027070774 0.0078353286 0 0 0 -7.7512552e+30
0.96830153 0.029748103 0.0074666739 0 0 0 -7.7512552e+30
0.96740556 0.032428768 0.0070976615 0 0 0 -7.7512552e+30
0.96646047 0.035113279 0.0067082644 0 0 0 -7.7512552e+30
0.96534562 0.037803408 0.0062485933 0 0 0 -7.7512552e+30
0.96419859 0.040498145 0.0057756901 0 0 0 -7.7512552e+30
0.96295321 0.043198742 0.0052620173 0 0 0 -7.7512552e+30
0.96165049 0.045905001 0.0047246218 0 0 0 -7.7512552e+30
0.96002686 0.048622485 0.0040544271 0 0 0 -7.7512552e+30
0.95829058 0.05134847 0.0033375025 0 0 0 -7.7512552e+30
0.95623231 0.054088518 0.0024874806 0 0 0 -7.7512552e+30
0.9539417 0.056842156 0.0015412569 0 0 0 -7.7512552e+30
0.95149565 0.059608586 0.00053071976 0 0 0 -7.7512552e+30
0.94887173 0.062389322 -0.00055336952 0 0 0 -7.7512552e+30
0.94615054 0.065182865 -0.0016777515 0 0 0 -7.7512552e+30
0.94322062 0.067993432 -0.0028886199 0 0 0 -7.7512552e+30
0.94007254 0.070822515 -0.0041896105 0 0 0 -7.7512552e+30
0.93658566 0.073675759 -0.00563097 0 0 0 -7.7512552e+30
0.93245983 0.076566637 -0.0073366761 0 0 0 -7.7512552e+30
0.92712808 0.079521641 -0.0095413923 0 0 0 -7.7512552e+30
0.9199543 0.082574412 -0.012508512 0 0 0 -7.7512552e+30
0.91143489 0.085713357 -0.016032457 0 0 0 -7.7512552e+30
0.90474355 -0.078818634 -0.021793604 0 0 0 -7.7512552e+30
0.91777289 -0.075186312 -0.016373396 0 0 0 -7.7512552e+30
0.92550611 -0.071932964 -0.013155699 0 0 0 -7.7512552e+30
0.93143475 -0.068817683 -0.010688543 0 0 0 -7.7512552e+30
0.93638813 -0.065781757 -0.0086268187 0 0 0 -7.7512552e+30
0.94053018 -0.062810391 -0.0069025755 0 0 0 -7.7512552e+30
0.94395626 -0.059893832 -0.0054759979 0 0 0 -7.7512552e+30
0.94698715 -0.057011038 -0.0042139292 0 0 0 -7.7512552e+30
0.94993961 -0.0541436 -0.0029842854 0 0 0 -7.7512552e+30
0.95248902 -0.051307075 -0.001922369 0 0 0 -7.7512552e+30
0.95501471 -0.048481233 -0.00087034702 0 0 0 -7.7512552e+30
0.95732474 -0.045674652 9.2148781e-05 0 0 0 -7.7512552e+30
0.9594574 -0.042884484 0.00098073483 0 0 0 -7.7512552e+30
0.96140444 -0.040110037 0.0017921925 0 0 0 -7.7512552e+30
0.96305013 -0.037354931 0.0024783611 0 0 0 -7.7512552e+30
0.96458364 -0.034610271 0.0031177402 0 0 0 -7.7512552e+30
0.96578419 -0.031883396 0.0036187172 0 0 0 -7.7512552e+30
0.96698129 -0.029161146 0.0041183233 0 0 0 -7.7512552e+30
0.96793342 -0.026451332 0.0045160055 0 0 0 -7.7512552e+30
0.9688164 -0.023747208 0.0048849583 0 0 0 -7.7512552e+30
0.96964657 -0.021047922 0.0052319765 0 0 0 -7.7512552e+30
0.97025204 -0.018357778 0.0054854155 0 0 0 -7.7512552e+30
0.97086 -0.015669847 0.0057401061 0 0 0 -7.7512552e+30
0.97140169 -0.012985745 0.0059671402 0 0 0 -7.7512552e+30
0.97184014 -0.010305874 0.0061511993 0 0 0 -7.7512552e+30
0.97227705 -0.0076276865 0.0063346028 0 0 0 -7.7512552e+30
0.97258043 -0.0049534831 0.0064625144 0 0 0 -7.7512552e+30
0.97286987 -0.0022806451 0.0065846443 0 0 0 -7.7512552e+30
0.97302091 0.00038919039 0.0066492558 0 0 0 -7.7512552e+30
0.97308648 0.0030574333 0.0066783428 0 0 0 -7.7512552e+30
0.9731009 0.0057249004 0.0066859722 0 0 0 -7.7512552e+30
0.97294033 0.0083908755 0.0066210628 0 0 0 -7.7512552e+30
0.97261286 0.011056389 0.0064866543 0 0 0 -7.7512552e+30
0.97221947 0.013722822 0.0063248873 0 0 0 -7.7512552e+30
0.97188175 0.016390849 0.0061861277 0 0 0 -7.7512552e+30
0.97128272 0.019059952 0.005938828 0 0 0 -7.7512552e+30
0.97067308 0.021731291 0.0056871176 0 0 0 -7.7512552e+30
0.97006381 0.024404891 0.0054354668 0 0 0 -7.7512552e+30
0.96921098 0.027081961 0.0050827265 0 0 0 -7.7512552e+30
0.96831489 0.029762495 0.004711926 0 0 0 -7.7512552e+30
0.96741796 0.032446373 0.0043406487 0 0 0 -7.7512552e+30
0.96646214 0.035134211 0.0039450526 0 0 0 -7.7512552e+30
0.96536851 0.037827313 0.0034921169 0 0 0 -7.7512552e+30
0.96420968 0.040525422 0.0030120611 0 0 0 -7.7512552e+30
0.96296811 0.043229192 0.0024975538 0 0 0 -7.7512552e+30
0.96166921 0.045938611 0.0019593239 0 0 0 -7.7512552e+30
0.96004355 0.048659381 0.0012850761 0 0 0 -7.7512552e+30
0.95830238 0.051388718 0.00056290627 0 0 0 -7.7512552e+30
0.95624161 0.054132111 -0.00029218197 0 0 0 -7.7512552e+30
0.95395684 0.056888908 -0.0012403727 0 0 0 -7.7512552e+30
0.95150328 0.059658855 -0.0022587776 0 0 0 -7.7512552e+30
0.94887614 0.062443025 -0.0033493042 0 0 0 -7.7512552e+30
0.94615126 0.065240048 -0.0044804811 0 0 0 -7.7512552e+30
0.94321787 0.06805411 -0.0056983232 0 0 0 -7.7512552e+30
0.94004822 0.070887357 -0.0070143938 0 0 0 -7.7512552e+30
0.93656564 0.073743932 -0.0084606409 0 0 0 -7.7512552e+30
0.93242216 0.076639026 -0.010181665 0 0 0 -7.7512552e+30
0.92708695 0.079597801 -0.012398064 0 0 0 -7.7512552e+30
0.91995084 0.082652748 -0.015363336 0 0 0 -7.7512552e+30
0.91137075 0.085798167 -0.018928945 0 0 0 -7.7512552e+30
0.90082359 -0.079194285 -0.02632153 0 0 0 -7.7512552e+30
0.9171499 -0.075338304 -0.019498825 0 0 0 -7.7512552e+30
0.92509472 -0.072066672 -0.016177773 0 0 0 -7.7512552e+30
0.93114829 -0.068939313 -0.013646901 0 0 0 -7.7512552e+30
0.93613088 -0.06589748 -0.011563361 0 0 0 -7.7512552e+30
0.94029534 -0.062920786 -0.0098217726 0 0 0 -7.7512552e+30
0.94380224 -0.059995838 -0.0083547831 0 0 0 -7.7512552e+30
0.94682682 -0.057109609 -0.0070893764 0 0 0 -7.7512552e+30
0.94981098 -0.054236799 -0.0058408976 0 0 0 -7.7512552e+30
0.9523617 -0.051396549 -0.0047733784 0 0 0 -7.7512552e+30
0.95489085 -0.0485669 -0.0037150383 0 0 0 -7.7512552e+30
0.95721161 -0.045756228 -0.002743721 0 0 0 -7.7512552e+30
0.9593637 -0.042961627 -0.0018427372 0 0 0 -7.7512552e+30
0.96131408 -0.040183537 -0.0010261536 0 0 0 -7.7512552e+30
0.96296191 -0.037424855 -0.00033593178 0 0 0 -7.7512552e+30
0.96452641 -0.034675546 0.00031936169 0 0 0 -7.7512552e+30
0.96572828 -0.031945221 0.00082325935 0 0 0 -7.7512552e+30
0.96692514 -0.029219596 0.0013250709 0 0 0 -7.7512552e+30
0.96789372 -0.026505878 0.0017315149 0 0 0 -7.7512552e+30
0.96877789 -0.023798386 0.0021026731 0 0 0 -7.7512552e+30
0.96961522 -0.021095568 0.0024542212 0 0 0 -7.7512552e+30
0.97022128 -0.018402105 0.0027092099 0 0 0 -7.7512552e+30
0.97082925 -0.015710885 0.0029649734 0 0 0 -7.7512552e+30
0.97137403 -0.013023416 0.0031943917 0 0 0 -7.7512552e+30
0.97181296 -0.010340247 0.0033794641 0 0 0 -7.7512552e+30
0.97225118 -0.0076587591 0.0035642982 0 0 0 -7.7512552e+30
0.97255921 -0.0049811993 0.0036947727 0 0 0 -7.7512552e+30
0.97287035 -0.0023047607 0.0038266182 0 0 0 -7.7512552e+30
0.97301185 0.00036816113 0.0038874149 0 0 0 -7.7512552e+30
0.97307396 0.0030395966 0.0039151907 0 0 0 -7.7512552e+30
0.97309399 0.0057103606 0.0039253235 0 0 0 -7.7512552e+30
0.97293818 0.0083796 0.0038620234 0 0 0 -7.7512552e+30
0.97262371 0.011048415 0.0037324429 0 0 0 -7.7512552e+30
0.97222185 0.013718005 0.0035663247 0 0 0 -7.7512552e+30
0.97187972 0.016389234 0.0034251809 0 0 0 -7.7512552e+30
0.97128403 0.019061562 0.0031780601 0 0 0 -7.7512552e+30
0.97067356 0.021736123 0.0029248595 0 0 0 -7.7512552e+30
0.9700644 0.024412945 0.0026721358 0 0 0 -7.7512552e+30
0.96922553 0.027093174 0.0023235083 0 0 0 -7.7512552e+30
0.9683286 0.029776923 0.0019506216 0 0 0 -7.7512552e+30
0.96743059 0.03246402 0.0015772581 0 0 0 -7.7512552e+30
0.96646392 0.035155192 0.0011752844 0 0 0 -7.7512552e+30
0.96539128 0.037851281 0.00072896481 0 0 0 -7.7512552e+30
0.96422088 0.040552765 0.00024181604 0 0 0 -7.7512552e+30
0.96298313 0.04325971 -0.00027346611 0 0 0 -7.7512552e+30
0.9616878 0.04597231 -0.00081276894 0 0 0 -7.7512552e+30
0.96006024 0.048696369 -0.0014908314 0 0 0 -7.7512552e+30
0.95831418 0.051429078 -0.0022184849 0 0 0 -7.7512552e+30
0.95625091 0.054175816 -0.0030785203 0 0 0 -7.7512552e+30
0.9539721 0.056935765 -0.0040286779 0 0 0 -7.7512552e+30
0.95151067 0.059709243 -0.0050550699 0 0 0 -7.7512552e+30
0.94888055 0.062496848 -0.0061519146 0 0 0 -7.7512552e+30
0.94615197 0.06529735 -0.0072898269 0 0 0 -7.7512552e+30
0.94321513 0.068114929 -0.0085147619 0 0 0 -7.7512552e+30
0.94002378 0.070952363 -0.0098460913 0 0 0 -7.7512552e+30
0.93654573 0.073812276 -0.011297107 0 0 0 -7.7512552e+30
0.93238449 0.07671158 -0.013033569 0 0 0 -7.7512552e+30
0.92704558 0.079674162 -0.015261829 0 0 0 -7.7512552e+30
0.91994965 0.082731172 -0.01822412 0 0 0 -7.7512552e+30
0.91141629 0.085878342 -0.02178669 0 0 0 -7.7512552e+30
0.89869595 -0.079452097 -0.030119419 0 0 0 -7.7512552e+30
0.91652489 -0.07549078 -0.022634387 0 0 0 -7.7512552e+30
0.92466354 -0.07220193 -0.019216537 0 0 0 -7.7512552e+30
0.930861 -0.069061264 -0.016613483 0 0 0 -7.7512552e+30
0.93587291 -0.066013515 -0.014508069 0 0 0 -7.7512552e+30
0.9400599 -0.063031472 -0.012748897 0 0 0 -7.7512552e+30
0.94364738 -0.060098127 -0.011241257 0 0 0 -7.7512552e+30
0.94666612 -0.057208449 -0.0099725723 0 0 0 -7.7512552e+30
0.94966316 -0.054331206 -0.0087127686 0 0 0 -7.7512552e+30
0.95223427 -0.051486261 -0.0076318979 0 0 0 -7.7512552e+30
0.95476663 -0.048652798 -0.0065671802 0 0 0 -7.7512552e+30
0.95709813 -0.045838013 -0.0055867434 0 0 0 -7.7512552e+30
0.95925319 -0.043039702 -0.0046804547 0 0 0 -7.7512552e+30
0.96122348 -0.040257223 -0.0038517118 0 0 0 -7.7512552e+30
0.9628737 -0.037494943 -0.0031573772 0 0 0 -7.7512552e+30
0.96446872 -0.034740984 -0.0024861097 0 0 0 -7.7512552e+30
0.96567106 -0.032007255 -0.0019796491 0 0 0 -7.7512552e+30
0.96686888 -0.029278198 -0.0014751554 0 0 0 -7.7512552e+30
0.96785331 -0.026560584 -0.0010602474 0 0 0 -7.7512552e+30
0.96873927 -0.023849694 -0.00068664551 0 0 0 -7.7512552e+30
0.96958375 -0.02114333 -0.00033026934 0 0 0 -7.7512552e+30
0.97019076 -0.018446533 -7.379055e-05 0 0 0 -7.7512552e+30
0.97079849 -0.015752016 0.00018310547 0 0 0 -7.7512552e+30
0.97134638 -0.013061175 0.00041472912 0 0 0 -7.7512552e+30
0.97178578 -0.010374708 0.00060105324 0 0 0 -7.7512552e+30
0.97222495 -0.00768991 0.00078713894 0 0 0 -7.7512552e+30
0.97255969 -0.0050086044 0.00092941523 0 0 0 -7.7512552e+30
0.97286046 -0.0023290962 0.001057446 0 0 0 -7.7512552e+30
0.97300267 0.00034707785 0.0011188984 0 0 0 -7.7512552e+30
0.97306156 0.0030217171 0.0011453629 0 0 0 -7.7512552e+30
0.97308731 0.0056957854 0.001157999 0 0 0 -7.7512552e+30
0.97293293 0.0083682742 0.0010949373 0 0 0 -7.7512552e+30
0.97263455 0.011040421 0.00097155571 0 0 0 -7.7512552e+30
0.97223234 0.013713213 0.0008045435 0 0 0 -7.7512552e+30
0.97187793 0.016387617 0.00065761805 0 0 0 -7.7512552e+30
0.97128522 0.019063177 0.000410676 0 0 0 -7.7512552e+30
0.97067428 0.021740964 0.00015604496 0 0 0 -7.7512552e+30
0.97006512 0.024421019 -9.7870827e-05 0 0 0 -7.7512552e+30
0.96924031 0.027104413 -0.00044220686 0 0 0 -7.7512552e+30
0.9683423 0.029791383 -0.00081729889 0 0 0 -7.7512552e+30
0.96744299 0.032481711 -0.0011929274 0 0 0 -7.7512552e+30
0.96646547 0.035176225 -0.001601398 0 0 0 -7.7512552e+30
0.96541405 0.037875302 -0.0020407438 0 0 0 -7.7512552e+30
0.96423197 0.040580176 -0.0025351048 0 0 0 -7.7512552e+30
0.96299827 0.043290302 -0.0030510426 0 0 0 -7.7512552e+30
0.96170664 0.046006087 -0.0035912991 0 0 0 -7.7512552e+30
0.96007705 0.048733436 -0.0042734146 0 0 0 -7.7512552e+30
0.95832574 0.051469535 -0.0050065517 0 0 0 -7.7512552e+30
0.95625997 0.054219626 -0.005871594 0 0 0 -7.7512552e+30
0.95398748 0.056982741 -0.0068235397 0 0 0 -7.7512552e+30
0.9515183 0.059759751 -0.0078579187 0 0 0 -7.7512552e+30
0.94888484 0.062550813 -0.0089612603 0 0 0 -7.7512552e+30
0.94615281 0.065354802 -0.010105968 0 0 0 -7.7512552e+30
0.94321227 0.068175897 -0.011338115 0 0 0 -7.7512552e+30
0.93999922 0.071017534 -0.012684703 0 0 0 -7.7512552e+30
0.93652582 0.073880769 -0.014140487 0 0 0 -7.7512552e+30
0.93234634 0.076784328 -0.015892625 0 0 0 -7.7512552e+30
0.9270041 0.079750694 -0.018132687 0 0 0 -7.7512552e+30
0.91994846 0.082809791 -0.0210917 0 0 0 -7.7512552e+30
0.91146183 0.085958697 -0.024651289 0 0 0 -7.7512552e+30
0.91589761 -0.07564377 -0.025780201 0 0 0 -7.7512552e+30
0.92422462 -0.072337992 -0.022267163 0 0 0 -7.7512552e+30
0.93057299 -0.069183581 -0.019588411 0 0 0 -7.7512552e+30
0.93561423 -0.066129886 -0.017460942 0 0 0 -7.7512552e+30
0.93982387 -0.063142471 -0.015684009 0 0 0 -7.7512552e+30
0.94349122 -0.060200736 -0.014135778 0 0 0 -7.7512552e+30
0.94650507 -0.057307541 -0.012863159 0 0 0 -7.7512552e+30
0.9495064 -0.054426305 -0.011595845 0 0 0 -7.7512552e+30
0.95210612 -0.051576212 -0.010497749 0 0 0 -7.7512552e+30
0.95464218 -0.048738919 -0.0094265938 0 0 0 -7.7512552e+30
0.95698428 -0.045920014 -0.0084372759 0 0 0 -7.7512552e+30
0.95914245 -0.043117978 -0.007525444 0 0 0 -7.7512552e+30
0.96113276 -0.040331088 -0.0066844225 0 0 0 -7.7512552e+30
0.96278501 -0.037565224 -0.0059859157 0 0 0 -7.7512552e+30
0.96441126 -0.034806579 -0.0052984357 0 0 0 -7.7512552e+30
0.96561313 -0.032069452 -0.0047898293 0 0 0 -7.7512552e+30
0.96681249 -0.029336935 -0.0042822957 0 0 0 -7.7512552e+30
0.96780789 -0.026615577 -0.0038608313 0 0 0 -7.7512552e+30
0.96870041 -0.023901125 -0.0034826994 0 0 0 -7.7512552e+30
0.96955252 -0.021191204 -0.0031216145 0 0 0 -7.7512552e+30
0.97016013 -0.018491076 -0.0028636456 0 0 0 -7.7512552e+30
0.9707675 -0.015793247 -0.0026056767 0 0 0 -7.7512552e+30
0.97131848 -0.013099028 -0.0023715496 0 0 0 -7.7512552e+30
0.9717586 -0.010409251 -0.0021842718 0 0 0 -7.7512552e+30
0.97219825 -0.0077211466 -0.0019971132 0 0 0 -7.7512552e+30
0.97255993 -0.0050360747 -0.0018427372 0 0 0 -7.7512552e+30
0.97284913 -0.0023535173 -0.0017190576 0 0 0 -7.7512552e+30
0.9729929 0.00032594055 -0.0016565323 0 0 0 -7.7512552e+30
0.97304893 0.0030037928 -0.0016311407 0 0 0 -7.7512552e+30
0.97308052 0.0056811757 -0.0016161203 0 0 0 -7.7512552e+30
0.97292614 0.0083569065 -0.0016793609 0 0 0 -7.7512552e+30
0.97264564 0.011032408 -0.0017958879 0 0 0 -7.7512552e+30
0.97224307 0.013708409 -0.0019638538 0 0 0 -7.7512552e+30
0.97187591 0.016385995 -0.0021167994 0 0 0 -7.7512552e+30
0.97128654 0.019064795 -0.0023634434 0 0 0 -7.7512552e+30
0.97067571 0.021745818 -0.0026191473 0 0 0 -7.7512552e+30
0.97006583 0.024429113 -0.0028745532 0 0 0 -7.7512552e+30
0.96925497 0.02711568 -0.0032146573 0 0 0 -7.7512552e+30
0.96835577 0.029805878 -0.0035918951 0 0 0 -7.7512552e+30
0.96745551 0.032499444 -0.0039696693 0 0 0 -7.7512552e+30
0.96646702 0.035197303 -0.0043846369 0 0 0 -7.7512552e+30
0.96543694 0.037899382 -0.0048171282 0 0 0 -7.7512552e+30
0.96424782 0.040607587 -0.0053166151 0 0 0 -7.7512552e+30
0.96301341 0.043320976 -0.0058352947 0 0 0 -7.7512552e+30
0.96172523 0.046039946 -0.0063766241 0 0 0 -7.7512552e+30
0.96009386 0.048770599 -0.007062614 0 0 0 -7.7512552e+30
0.9583472 0.051509872 -0.0077971816 0 0 0 -7.7512552e+30
0.9562695 0.05426354 -0.0086713433 0 0 0 -7.7512552e+30
0.95400286 0.057029821 -0.0096251369 0 0 0 -7.7512552e+30
0.95152581 0.059810385 -0.010667682 0 0 0 -7.7512552e+30
0.94888914 0.062604897 -0.011777401 0 0 0 -7.7512552e+30
0.94615364 0.065412387 -0.012928963 0 0 0 -7.7512552e+30
0.94320953 0.068237014 -0.014168262 0 0 0 -7.7512552e+30
0.93997455 0.07108286 -0.015530348 0 0 0 -7.7512552e+30
0.93650568 0.073949441 -0.0169909 0 0 0 -7.7512552e+30
0.93230844 0.076857254 -0.018758714 0 0 0 -7.7512552e+30
0.92696238 0.079827435 -0.021010637 0 0 0 -7.7512552e+30
0.91994739 0.082888581 -0.023966312 0 0 0 -7.7512552e+30
0.91150761 0.086039245 -0.027522564 0 0 0 -7.7512552e+30
0.91526842 -0.07579726 -0.028936327 0 0 0 -7.7512552e+30
0.92378426 -0.07247448 -0.025327027 0 0 0 -7.7512552e+30
0.93020308 -0.069311157 -0.022606134 0 0 0 -7.7512552e+30
0.93535495 -0.066246554 -0.020421863 0 0 0 -7.7512552e+30
0.93958712 -0.06325376 -0.018627226 0 0 0 -7.7512552e+30
0.94332528 -0.060304128 -0.017041862 0 0 0 -7.7512552e+30
0.94634354 -0.057406887 -0.015761495 0 0 0 -7.7512552e+30
0.94934905 -0.054521658 -0.014486551 0 0 0 -7.7512552e+30
0.95197773 -0.051666394 -0.01337111 0 0 0 -7.7512552e+30
0.95451736 -0.048825249 -0.012293458 0 0 0 -7.7512552e+30
0.9568702 -0.046002224 -0.011294961 0 0 0 -7.7512552e+30
0.95903134 -0.043196455 -0.010377765 0 0 0 -7.7512552e+30
0.96104169 -0.040405147 -0.0095243454 0 0 0 -7.7512552e+30
0.96269619 -0.037635677 -0.0088216662 0 0 0 -7.7512552e+30
0.96434677 -0.034872599 -0.0081207156 0 0 0 -7.7512552e+30
0.96555507 -0.032131806 -0.0076070428 0 0 0 -7.7512552e+30
0.96675599 -0.029395828 -0.007096529 0 0 0 -7.7512552e+30
0.96776223 -0.026670715 -0.0066684484 0 0 0 -7.7512552e+30
0.96866155 -0.023952691 -0.006285727 0 0 0 -7.7512552e+30
0.96952081 -0.021239204 -0.0059199333 0 0 0 -7.7512552e+30
0.97012925 -0.018535735 -0.0056603551 0 0 0 -7.7512552e+30
0.9707371 -0.015834576 -0.0054010153 0 0 0 -7.7512552e+30
0.97129059 -0.013136977 -0.0051648617 0 0 0 -7.7512552e+30
0.97173107 -0.010443883 -0.0049763918 0 0 0 -7.7512552e+30
0.97217846 -0.0077523254 -0.0047851205 0 0 0 -7.7512552e+30
0.97256029 -0.0050636157 -0.0046216249 0 0 0 -7.7512552e+30
0.97283781 -0.0023779925 -0.0045022368 0 0 0 -7.7512552e+30
0.97298193 0.00030472875 -0.0044394135 0 0 0 -7.7512552e+30
0.97303641 0.0029858276 -0.0044144392 0 0 0 -7.7512552e+30
0.97307134 0.0056665065 -0.0043978691 0 0 0 -7.7512552e+30
0.97291911 0.0083455108 -0.0044605732 0 0 0 -7.7512552e+30
0.97265673 0.011024378 -0.0045698881 0 0 0 -7.7512552e+30
0.97225356 0.013703594 -0.0047388673 0 0 0 -7.7512552e+30
0.971874 0.016384369 -0.0048978329 0 0 0 -7.7512552e+30
0.97128773 0.019066418 -0.0051442981 0 0 0 -7.7512552e+30
0.97067726 0.021750683 -0.0054010153 0 0 0 -7.7512552e+30
0.97006655 0.024437226 -0.0056579709 0 0 0 -7.7512552e+30
0.96926951 0.027126973 -0.0059937239 0 0 0 -7.7512552e+30
0.96836936 0.029820409 -0.006373167 0 0 0 -7.7512552e+30
0.96746802 0.032517217 -0.0067531466 0 0 0 -7.7512552e+30
0.96646881 0.03521844 -0.0071746111 0 0 0 -7.7512552e+30
0.96546006 0.037923515 -0.0076000094 0 0 0 -7.7512552e+30
0.96426451 0.040635049 -0.0081045628 0 0 0 -7.7512552e+30
0.96302855 0.043351717 -0.0086262226 0 0 0 -7.7512552e+30
0.96174407 0.046073884 -0.0091685057 0 0 0 -7.7512552e+30
0.9601109 0.048807845 -0.009858489 0 0 0 -7.7512552e+30
0.958372 0.051550232 -0.010593176 0 0 0 -7.7512552e+30
0.9562788 0.054307558 -0.011477828 0 0 0 -7.7512552e+30
0.95401812 0.05707702 -0.012433529 0 0 0 -7.7512552e+30
0.95153332 0.059861138 -0.01348418 0 0 0 -7.7512552e+30
0.94889367 0.062659115 -0.014600277 0 0 0 -7.7512552e+30
0.94615436 0.065470107 -0.015758693 0 0 0 -7.7512552e+30
0.94320679 0.06829828 -0.017005324 0 0 0 -7.7512552e+30
0.93994999 0.071148343 -0.018382788 0 0 0 -7.7512552e+30
0.93648577 0.074018285 -0.019848287 0 0 0 -7.7512552e+30
0.93227029 0.076930352 -0.021631837 0 0 0 -7.7512552e+30
0.92692089 0.079904348 -0.023895621 0 0 0 -7.7512552e+30
0.91994619 0.082967579 -0.026847839 0 0 0 -7.7512552e+30
0.9115535 0.08611998 -0.030400634 0 0 0 -7.7512552e+30
0.91463709 -0.075951248 -0.032102764 0 0 0 -7.7512552e+30
0.92334294 -0.072611362 -0.02839601 0 0 0 -7.7512552e+30
0.92977321 -0.069442675 -0.025657654 0 0 0 -7.7512552e+30
0.93509495 -0.066363566 -0.023391128 0 0 0 -7.7512552e+30
0.93934965 -0.063365377 -0.02157855 0 0 0 -7.7512552e+30
0.94316101 -0.060407683 -0.019954741 0 0 0 -7.7512552e+30
0.94618213 -0.057506479 -0.018667281 0 0 0 -7.7512552e+30
0.94919133 -0.054617263 -0.017384768 0 0 0 -7.7512552e+30
0.9518491 -0.051756799 -0.016251922 0 0 0 -7.7512552e+30
0.95439219 -0.048911825 -0.015167832 0 0 0 -7.7512552e+30
0.95675588 -0.046084635 -0.014160156 0 0 0 -7.7512552e+30
0.95892 -0.043275125 -0.013237417 0 0 0 -7.7512552e+30
0.96095037 -0.040479399 -0.0123716 0 0 0 -7.7512552e+30
0.96260881 -0.037706248 -0.011663914 0 0 0 -7.7512552e+30
0.9642663 -0.034939393 -0.010956883 0 0 0 -7.7512552e+30
0.96549678 -0.032194316 -0.01043129 0 0 0 -7.7512552e+30
0.96669936 -0.029454863 -0.0099177361 0 0 0 -7.7512552e+30
0.96771693 -0.02672598 -0.0094829202 0 0 0 -7.7512552e+30
0.96862245 -0.024004383 -0.009095788 0 0 0 -7.7512552e+30
0.96948922 -0.02128732 -0.0087250471 0 0 0 -7.7512552e+30
0.9700985 -0.018580494 -0.0084639788 0 0 0 -7.7512552e+30
0.97070694 -0.01587599 -0.0082032681 0 0 0 -7.7512552e+30
0.97126257 -0.01317502 -0.0079649687 0 0 0 -7.7512552e+30
0.97170973 -0.010478465 -0.0077729225 0 0 0 -7.7512552e+30
0.97215986 -0.0077835526 -0.0075794458 0 0 0 -7.7512552e+30
0.97255719 -0.0050912835 -0.0074086189 0 0 0 -7.7512552e+30
0.97282624 -0.0024025328 -0.0072922707 0 0 0 -7.7512552e+30
0.97297275 0.00028349645 -0.0072281361 0 0 0 -7.7512552e+30
0.97302306 0.0029678084 -0.0072048903 0 0 0 -7.7512552e+30
0.97305858 0.0056517655 -0.0071879625 0 0 0 -7.7512552e+30
0.97291207 0.0083340872 -0.0072485209 0 0 0 -7.7512552e+30
0.97266781 0.011016327 -0.0073506236 0 0 0 -7.7512552e+30
0.97226417 0.013698767 -0.0075205564 0 0 0 -7.7512552e+30
0.97187209 0.016382739 -0.0076856017 0 0 0 -7.7512552e+30
0.97128952 0.019068044 -0.0079317093 0 0 0 -7.7512552e+30
0.97067857 0.021755559 -0.0081897974 0 0 0 -7.7512552e+30
0.97006714 0.024445359 -0.0084481239 0 0 0 -7.7512552e+30
0.96928442 0.027138295 -0.0087794065 0 0 0 -7.7512552e+30
0.96838307 0.029834973 -0.0091611147 0 0 0 -7.7512552e+30
0.96747494 0.032535087 -0.0095456839 0 0 0 -7.7512552e+30
0.96647048 0.035239626 -0.0099713802 0 0 0 -7.7512552e+30
0.96546459 0.037947938 -0.010397434 0 0 0 -7.7512552e+30
0.96428108 0.040662579 -0.010899305 0 0 0 -7.7512552e+30
0.96304369 0.043382533 -0.011423945 0 0 0 -7.7512552e+30
0.96176291 0.046107911 -0.011967123 0 0 0 -7.7512552e+30
0.96012759 0.048845187 -0.012661099 0 0 0 -7.7512552e+30
0.95839715 0.051590689 -0.013395548 0 0 0 -7.7512552e+30
0.9562881 0.05435168 -0.014291167 0 0 0 -7.7512552e+30
0.95402753 0.057124488 -0.015251279 0 0 0 -7.7512552e+30
0.95154095 0.059912011 -0.016307473 0 0 0 -7.7512552e+30
0.94889557 0.062713541 -0.01743114 0 0 0 -7.7512552e+30
0.94615507 0.065527976 -0.018595338 0 0 0 -7.7512552e+30
0.94320393 0.068359703 -0.0198493 0 0 0 -7.7512552e+30
0.93992519 0.07121399 -0.02124244 0 0 0 -7.7512552e+30
0.93644381 0.074088089 -0.022721887 0 0 0 -7.7512552e+30
0.93223214 0.077003635 -0.024512112 0 0 0 -7.7512552e+30
0.92690706 0.079980329 -0.026776016 0 0 0 -7.7512552e+30
0.919945 0.083046772 -0.029736459 0 0 0 -7.7512552e+30
0.91159928 0.086200915 -0.033285618 0 0 0 -7.7512552e+30
0.91375923 -0.076121539 -0.035384119 0 0 0 -7.7512552e+30
0.92290008 -0.072748668 -0.031474352 0 0 0 -7.7512552e+30
0.92934668 -0.069574326 -0.028716445 0 0 0 -7.7512552e+30
0.93483388 -0.066480897 -0.026368618 0 0 0 -7.7512552e+30
0.93911159 -0.063477285 -0.02453804 0 0 0 -7.7512552e+30
0.94300413 -0.060511068 -0.022872031 0 0 0 -7.7512552e+30
0.94602978 -0.057605825 -0.021576703 0 0 0 -7.7512552e+30
0.94904256 -0.054712646 -0.020286858 0 0 0 -7.7512552e+30
0.95172024 -0.051847443 -0.019140244 0 0 0 -7.7512552e+30
0.95426679 -0.048998609 -0.018049717 0 0 0 -7.7512552e+30
0.9566412 -0.046167277 -0.017032743 0 0 0 -7.7512552e+30
0.9588083 -0.043354012 -0.01610446 0 0 0 -7.7512552e+30
0.96086001 -0.040553778 -0.01522553 0 0 0 -7.7512552e+30
0.96252334 -0.03777691 -0.014512599 0 0 0 -7.7512552e+30
0.96418285 -0.035006456 -0.013801277 0 0 0 -7.7512552e+30
0.9654386 -0.032256991 -0.01326263 0 0 0 -7.7512552e+30
0.96664238 -0.02951405 -0.012746096 0 0 0 -7.7512552e+30
0.96767116 -0.026781386 -0.012304485 0 0 0 -7.7512552e+30
0.96858048 -0.024056287 -0.011913896 0 0 0 -7.7512552e+30
0.96945775 -0.021335555 -0.011537075 0 0 0 -7.7512552e+30
0.9700675 -0.018625366 -0.011274576 0 0 0 -7.7512552e+30
0.9706769 -0.015917497 -0.011012197 0 0 0 -7.7512552e+30
0.97123957 -0.013213029 -0.010769844 0 0 0 -7.7512552e+30
0.97169054 -0.010513088 -0.010575175 0 0 0 -7.7512552e+30
0.97214127 -0.0078148637 -0.010380745 0 0 0 -7.7512552e+30
0.97253609 -0.005119333 -0.010210156 0 0 0 -7.7512552e+30
0.97281504 -0.0024271291 -0.01008904 0 0 0 -7.7512552e+30
0.9729625 0.00026219338 -0.01002419 0 0 0 -7.7512552e+30
0.97300887 0.0029497351 -0.010002494 0 0 0 -7.7512552e+30
0.97304523 0.0056369826 -0.0099851489 0 0 0 -7.7512552e+30
0.97290504 0.0083226347 -0.010043263 0 0 0 -7.7512552e+30
0.9726789 0.011008257 -0.010138154 0 0 0 -7.7512552e+30
0.97227478 0.013693929 -0.010308981 0 0 0 -7.7512552e+30
0.9718703 0.016381105 -0.010480046 0 0 0 -7.7512552e+30
0.97129154 0.019069675 -0.010725617 0 0 0 -7.7512552e+30
0.97068 0.021760447 -0.010985196 0 0 0 -7.7512552e+30
0.97006798 0.02445351 -0.011245012 0 0 0 -7.7512552e+30
0.96929908 0.027149644 -0.011571825 0 0 0 -7.7512552e+30
0.9683969 0.029849574 -0.011955738 0 0 0 -7.7512552e+30
0.9674778 0.032553032 -0.012346745 0 0 0 -7.7512552e+30
0.96647215 0.035260864 -0.012774825 0 0 0 -7.7512552e+30
0.96546507 0.037972473 -0.013203502 0 0 0 -7.7512552e+30
0.96429765 0.040690176 -0.013700604 0 0 0 -7.7512552e+30
0.96305883 0.043413423 -0.014228404 0 0 0 -7.7512552e+30
0.96178186 0.046142008 -0.014772415 0 0 0 -7.7512552e+30
0.96013165 0.048882872 -0.015475929 0 0 0 -7.7512552e+30
0.95840919 0.051631525 -0.016210437 0 0 0 -7.7512552e+30
0.95629752 0.054395914 -0.017111182 0 0 0 -7.7512552e+30
0.95403457 0.057172127 -0.018076599 0 0 0 -7.7512552e+30
0.95154834 0.05996301 -0.019137621 0 0 0 -7.7512552e+30
0.94889295 0.062768228 -0.020270765 0 0 0 -7.7512552e+30
0.94615173 0.065586105 -0.021440625 0 0 0 -7.7512552e+30
0.94320107 0.068421267 -0.022700071 0 0 0 -7.7512552e+30
0.93990052 0.071279801 -0.024109006 0 0 0 -7.7512552e+30
0.93639779 0.074158229 -0.025604427 0 0 0 -7.7512552e+30
0.93218613 0.077077396 -0.027402878 0 0 0 -7.7512552e+30
0.92691302 0.080055684 -0.02965498 0 0 0 -7.7512552e+30
0.9199692 0.083125062 -0.032621145 0 0 0 -7.7512552e+30
0.91164541 0.086282037 -0.036177278 0 0 0 -7.7512552e+30
0.91244543 -0.076320507 -0.038863301 0 0 0 -7.7512552e+30
0.92242241 -0.072888486 -0.034576416 0 0 0 -7.7512552e+30
0.92892337 -0.069706082 -0.031782508 0 0 0 -7.7512552e+30
0.93457246 -0.066598564 -0.029354453 0 0 0 -7.7512552e+30
0.93887281 -0.063589513 -0.027505636 0 0 0 -7.7512552e+30
0.94280446 -0.060617089 -0.025815189 0 0 0 -7.7512552e+30
0.94587684 -0.05770544 -0.024493933 0 0 0 -7.7512552e+30
0.94889402 -0.054808222 -0.023196101 0 0 0 -7.7512552e+30
0.95159078 -0.05193834 -0.022036076 0 0 0 -7.7512552e+30
0.95414102 -0.049085625 -0.020938993 0 0 0 -7.7512552e+30
0.95652628 -0.04625012 -0.01991272 0 0 0 -7.7512552e+30
0.95869625 -0.0434331 -0.018978834 0 0 0 -7.7512552e+30
0.96077216 -0.04062824 -0.018085539 0 0 0 -7.7512552e+30
0.96243787 -0.037847742 -0.017368376 0 0 0 -7.7512552e+30
0.96409953 -0.03507369 -0.016652882 0 0 0 -7.7512552e+30
0.96537983 -0.032319814 -0.016101122 0 0 0 -7.7512552e+30
0.96658552 -0.029573383 -0.015581489 0 0 0 -7.7512552e+30
0.96762514 -0.026836934 -0.015133142 0 0 0 -7.7512552e+30
0.9685359 -0.024108397 -0.014740229 0 0 0 -7.7512552e+30
0.96942592 -0.021383906 -0.014356136 0 0 0 -7.7512552e+30
0.97003651 -0.018670348 -0.014092088 0 0 0 -7.7512552e+30
0.97064412 -0.015959186 -0.013829291 0 0 0 -7.7512552e+30
0.97121072 -0.013251277 -0.013584077 0 0 0 -7.7512552e+30
0.97167134 -0.010547796 -0.013384461 0 0 0 -7.7512552e+30
0.97212243 -0.0078462493 -0.013188958 0 0 0 -7.7512552e+30
0.97251499 -0.0051474478 -0.013018489 0 0 0 -7.7512552e+30
0.97280681 -0.0024517328 -0.012891293 0 0 0 -7.7512552e+30
0.97294605 0.00024075434 -0.012829661 0 0 0 -7.7512552e+30
0.97299457 0.0029316153 -0.012807012 0 0 0 -7.7512552e+30
0.97302783 0.0056221243 -0.012790918 0 0 0 -7.7512552e+30
0.97289872 0.0083111618 -0.012844443 0 0 0 -7.7512552e+30
0.97269011 0.011000168 -0.012932241 0 0 0 -7.7512552e+30
0.97228551 0.013689078 -0.013104141 0 0 0 -7.7512552e+30
0.97188115 0.0163795 -0.013275981 0 0 0 -7.7512552e+30
0.97129381 0.019071309 -0.01352632 0 0 0 -7.7512552e+30
0.97068155 0.021765349 -0.013787389 0 0 0 -7.7512552e+30
0.97006869 0.024461681 -0.014048755 0 0 0 -7.7512552e+30
0.96931386 0.027161021 -0.014371037 0 0 0 -7.7512552e+30
0.96841049 0.029864211 -0.014757156 0 0 0 -7.7512552e+30
0.96748066 0.032571025 -0.0151546 0 0 0 -7.7512552e+30
0.96647382 0.03528215 -0.015585065 0 0 0 -7.7512552e+30
0.96546817 0.037997037 -0.016015112 0 0 0 -7.7512552e+30
0.96431446 0.040717836 -0.016508698 0 0 0 -7.7512552e+30
0.96307409 0.043444388 -0.017039537 0 0 0 -7.7512552e+30
0.96180069 0.046176195 -0.017584503 0 0 0 -7.7512552e+30
0.96013403 0.048920687 -0.018298388 0 0 0 -7.7512552e+30
0.95840955 0.051672719 -0.019037008 0 0 0 -7.7512552e+30
0.95631015 0.054440171 -0.019936681 0 0 0 -7.7512552e+30
0.9540416 0.057219885 -0.020908952 0 0 0 -7.7512552e+30
0.95155609 0.060014129 -0.021974444 0 0 0 -7.7512552e+30
0.94889021 0.06282305 -0.023117304 0 0 0 -7.7512552e+30
0.94614577 0.065644473 -0.024294019 0 0 0 -7.7512552e+30
0.94318628 0.068483375 -0.025562882 0 0 0 -7.7512552e+30
0.9398756 0.071345769 -0.026982665 0 0 0 -7.7512552e+30
0.93635166 0.07422854 -0.02849412 0 0 0 -7.7512552e+30
0.93213439 0.077151559 -0.030303121 0 0 0 -7.7512552e+30
0.92691898 0.08013121 -0.032540679 0 0 0 -7.7512552e+30
0.9200263 0.083202146 -0.035498738 0 0 0 -7.7512552e+30
0.91169143 0.086363353 -0.039075792 0 0 0 -7.7512552e+30
0.91140485 -0.076502204 -0.042236745 0 0 0 -7.7512552e+30
0.92179263 -0.07303822 -0.037752986 0 0 0 -7.7512552e+30
0.92849898 -0.069838218 -0.034857631 0 0 0 -7.7512552e+30
0.9343102 -0.066716529 -0.032348514 0 0 0 -7.7512552e+30
0.93863344 -0.063702047 -0.030481458 0 0 0 -7.7512552e+30
0.94259143 -0.060724102 -0.028771996 0 0 0 -7.7512552e+30
0.94572353 -0.057805315 -0.027418673 0 0 0 -7.7512552e+30
0.94874501 -0.054904073 -0.026113153 0 0 0 -7.7512552e+30
0.95146143 -0.052029446 -0.024939358 0 0 0 -7.7512552e+30
0.95401502 -0.049172863 -0.023835778 0 0 0 -7.7512552e+30
0.95641112 -0.046333179 -0.022800207 0 0 0 -7.7512552e+30
0.95858407 -0.043512389 -0.021860838 0 0 0 -7.7512552e+30
0.96067357 -0.040703334 -0.02095747 0 0 0 -7.7512552e+30
0.9623518 -0.037918761 -0.020231545 0 0 0 -7.7512552e+30
0.96401596 -0.035141088 -0.019511759 0 0 0 -7.7512552e+30
0.9653213 -0.032382801 -0.018946648 0 0 0 -7.7512552e+30
0.96652842 -0.029632865 -0.018424034 0 0 0 -7.7512552e+30
0.96757936 -0.026892615 -0.017968774 0 0 0 -7.7512552e+30
0.96849108 -0.024160648 -0.017573595 0 0 0 -7.7512552e+30
0.96939421 -0.021432383 -0.017182171 0 0 0 -7.7512552e+30
0.9700048 -0.018715465 -0.016916871 0 0 0 -7.7512552e+30
0.97060704 -0.016001074 -0.016655207 0 0 0 -7.7512552e+30
0.97117805 -0.013289703 -0.016406894 0 0 0 -7.7512552e+30
0.97165203 -0.01058259 -0.016200721 0 0 0 -7.7512552e+30
0.97210371 -0.0078777093 -0.016003907 0 0 0 -7.7512552e+30
0.97249448 -0.0051756259 -0.015833497 0 0 0 -7.7512552e+30
0.97279859 -0.0024763979 -0.0157004 0 0 0 -7.7512552e+30
0.97292948 0.00021926127 -0.015642166 0 0 0 -7.7512552e+30
0.97298002 0.0029134508 -0.015618443 0 0 0 -7.7512552e+30
0.97300911 0.0056072157 -0.015604019 0 0 0 -7.7512552e+30
0.97289348 0.0082996693 -0.015652061 0 0 0 -7.7512552e+30
0.97270262 0.010992067 -0.015732586 0 0 0 -7.7512552e+30
0.97229791 0.013684224 -0.015905261 0 0 0 -7.7512552e+30
0.97189307 0.016377892 -0.016078115 0 0 0 -7.7512552e+30
0.97129607 0.019072948 -0.016333818 0 0 0 -7.7512552e+30
0.97068298 0.021770261 -0.016596437 0 0 0 -7.7512552e+30
0.97006929 0.024469873 -0.016859353 0 0 0 -7.7512552e+30
0.96932888 0.02717242 -0.017176867 0 0 0 -7.7512552e+30
0.96842432 0.029878881 -0.01756525 0 0 0 -7.7512552e+30
0.96748364 0.032589056 -0.017969191 0 0 0 -7.7512552e+30
0.96647549 0.035303488 -0.018402219 0 0 0 -7.7512552e+30
0.96548295 0.038021512 -0.01882863 0 0 0 -7.7512552e+30
0.96433449 0.040745519 -0.019322157 0 0 0 -7.7512552e+30
0.96308935 0.043475427 -0.019857407 0 0 0 -7.7512552e+30
0.96181977 0.04621046 -0.020403266 0 0 0 -7.7512552e+30
0.96013641 0.048958592 -0.021127582 0 0 0 -7.7512552e+30
0.95840979 0.051714011 -0.021870613 0 0 0 -7.7512552e+30
0.95633268 0.054484308 -0.022764683 0 0 0 -7.7512552e+30
0.95404851 0.057267763 -0.023748159 0 0 0 -7.7512552e+30
0.95156384 0.060065374 -0.024818242 0 0 0 -7.7512552e+30
0.94888759 0.062878005 -0.025970817 0 0 0 -7.7512552e+30
0.94613981 0.065702967 -0.027154267 0 0 0 -7.7512552e+30
0.94316578 0.068545833 -0.028435349 0 0 0 -7.7512552e+30
0.93985069 0.071411908 -0.029863477 0 0 0 -7.7512552e+30
0.93630528 0.07429903 -0.031391025 0 0 0 -7.7512552e+30
0.93208265 0.077225909 -0.033210635 0 0 0 -7.7512552e+30
0.92692494 0.080206938 -0.03543365 0 0 0 -7.7512552e+30
0.92008364 0.083279394 -0.038382947 0 0 0 -7.7512552e+30
