# .PCD v0.7 - Point Cloud Data file format
VERSION 0.7
FIELDS x y z rgba
SIZE 4 4 4 4
TYPE F F F U
COUNT 1 1 1 1
WIDTH 885
HEIGHT 1
VIEWPOINT 0 0 0 1 0 0 0
POINTS 885
DATA ascii
0.13658315 0.37700915 0.0020498037 4287202917
0.13746297 0.37700191 0.00023293495 4287268711
0.17735791 0.4066959 0.00017106533 4288055908
0.17892379 0.40804011 0.0016176701 4283713568
0.18288475 0.40712014 0.00026375055 4286345036
0.21137947 -0.196973 0.022804201 4293650884
0.21143037 -0.19513535 0.022821546 4293980615
0.21454567 -0.19208068 0.025773168 4294506706
0.21612847 -0.18964598 0.027257502 4294769890
0.21617907 -0.18781975 0.027274728 4294967022
0.21699572 -0.18569499 0.028025508 4294966773
0.21628034 -0.18416733 0.027309179 4294967030
0.21479928 -0.18293059 0.025859475 4294967285
0.21485001 -0.18110055 0.02587676 4294901752
0.21490073 -0.17927051 0.025894046 4294901499
0.21342009 -0.17801845 0.024444401 4294901754
0.21040845 -0.177333 0.021528125 4294901753
0.20892829 -0.1760619 0.020078659 4294901499
0.21218187 -0.19697958 0.021147251 4294638041
0.21223277 -0.19514194 0.021164536 4294835680
0.21304899 -0.19300005 0.021917164 4294967016
0.21692592 -0.18965253 0.025610805 4294967028
0.21697658 -0.18782631 0.02562803 4294967033
0.21779233 -0.18570155 0.026380539 4294967035
0.21707779 -0.18417388 0.025662482 4294967033
0.2155984 -0.18293718 0.02420938 4294901752
0.21564913 -0.18110713 0.024226606 4294836219
0.21569985 -0.17927709 0.024243832 4294901501
0.21422082 -0.17802504 0.02279079 4294901500
0.21121252 -0.17733964 0.019867659 4294901500
0.20973402 -0.17606854 0.018414736 4294901502
0.22516686 -0.19386411 0.031265795 4294768862
0.22598153 -0.19174889 0.032019973 4294900970
0.22679597 -0.18963748 0.032773972 4294967026
0.22761041 -0.18752986 0.03352797 4294967029
0.22078091 -0.18844965 0.026912093 4294966780
0.22159564 -0.18633062 0.027666211 4294967036
0.22164601 -0.18451393 0.027683377 4294901501
0.22093207 -0.18299389 0.026963532 4294901500
0.21945417 -0.18176478 0.025506854 4294901500
0.21874058 -0.18023521 0.024787188 4294901501
0.21802706 -0.17870182 0.024067461 4294901501
0.21578568 -0.17774263 0.02187413 4294901500
0.21583647 -0.17591068 0.021891415 4294901501
0.21359545 -0.17493439 0.019698203 4294901503
0.21670181 -0.17196354 0.022662759 4294901502
0.22351396 -0.20023918 0.027368665 4293452740
0.22661966 -0.19717109 0.030341089 4293979595
0.2274335 -0.19505399 0.031096876 4294571482
0.22595596 -0.1938706 0.029636264 4294901224
0.22676975 -0.19175538 0.03039217 4294967281
0.22758341 -0.18964398 0.031147897 4294967033
0.22839701 -0.18753633 0.031903625 4294967035
0.22768337 -0.1860373 0.031181931 4294967035
0.22773337 -0.18423396 0.031198978 4294901500
0.22701997 -0.18272915 0.030477285 4294901500
0.22630656 -0.18122056 0.029755592 4294901500
0.22559327 -0.17970815 0.029034019 4294901500
0.22488016 -0.17819193 0.028312564 4294901501
0.22416711 -0.17667186 0.02759099 4294901502
0.222691 -0.17543703 0.026130915 4294901502
0.22121513 -0.17419457 0.024670959 4294901502
0.22126555 -0.17237413 0.024688125 4294901502
0.21750087 -0.17197013 0.021012664 4294901502
0.21678871 -0.17042148 0.020291388 4294901502
0.21683949 -0.16858956 0.020308673 4294901502
0.21383876 -0.16786796 0.017372012 4294901501
0.21160126 -0.16685545 0.015174031 4294836221
0.2108897 -0.16528392 0.014453053 4294705149
0.23036045 -0.19951758 0.031641483 4293386695
0.22430557 -0.20024571 0.025734007 4294439893
0.22740799 -0.19717759 0.028713286 4294835166
0.22822094 -0.19506046 0.029470801 4294901221
0.23055977 -0.19232711 0.031709313 4294967280
0.2321353 -0.1899133 0.033207238 4294967032
0.23294783 -0.18781331 0.033964634 4294966781
0.23299748 -0.18602142 0.033981562 4294901501
0.23304719 -0.18422952 0.03399843 4294901499
0.2315715 -0.18303859 0.03253448 4294901500
0.23162127 -0.18124285 0.032551467 4294901500
0.23090845 -0.1797438 0.031828046 4294901500
0.23019576 -0.17824093 0.031104565 4294901501
0.22948319 -0.17673421 0.030381203 4294901502
0.22877067 -0.17522374 0.02965796 4294901502
0.22729599 -0.17399845 0.028194308 4294901502
0.22658378 -0.17247844 0.027471066 4294901502
0.22358495 -0.17181027 0.024527073 4294901502
0.21982437 -0.17141008 0.020842969 4294901502
0.2175886 -0.17042807 0.018639565 4294901502
0.21763939 -0.16859615 0.01865685 4294901502
0.21464205 -0.16787457 0.015713334 4294901502
0.21240705 -0.1668621 0.013510108 4294836222
0.21169627 -0.16529056 0.012787402 4294836222
0.20946187 -0.16425902 0.010584414 4294770686
0.23343229 -0.19857118 0.032247424 4293979340
0.23119521 -0.19772643 0.030037522 4294703322
0.23276943 -0.19530118 0.031539023 4294967017
0.2335813 -0.19319543 0.032298148 4294967280
0.234393 -0.19109359 0.033057213 4294967032
0.23596674 -0.18868738 0.034558535 4294967037
0.23601621 -0.18690121 0.034575462 4294901500
0.23682767 -0.18481073 0.035334408 4294901501
0.23611522 -0.18332887 0.034609139 4294901500
0.23540294 -0.1818431 0.03388381 4294901500
0.23545247 -0.18005502 0.033900738 4294901501
0.23474026 -0.17856362 0.033175468 4294901502
0.23402828 -0.17706838 0.032450318 4294901502
0.23331624 -0.1755693 0.031725168 4294901502
0.23260444 -0.17406648 0.031000018 4294901502
0.23036963 -0.17313784 0.028790832 4294901502
0.22965807 -0.17162356 0.02806592 4294901502
0.22742385 -0.1706759 0.025856912 4294901502
0.22442859 -0.17000011 0.022906065 4294901502
0.22295636 -0.1687462 0.021439373 4294901502
0.21996182 -0.1680437 0.018488765 4294901502
0.21696764 -0.167326 0.015538454 4294901502
0.21701854 -0.1654903 0.015555739 4294901502
0.21402502 -0.16474968 0.012605548 4294901502
0.21027094 -0.16426569 0.0089136362 4294836222
0.22949594 -0.20589346 0.02611661 4286017623
0.22954589 -0.20409012 0.026133597 4291544233
0.23264205 -0.20100862 0.029126763 4293781449
0.23497623 -0.19825998 0.031375647 4294571480
0.23426443 -0.19678572 0.030648589 4294900709
0.23583686 -0.19436619 0.032153428 4294967278
0.23588639 -0.19257808 0.032170296 4294967031
0.2366972 -0.19047999 0.032931089 4294901500
0.23826909 -0.1880776 0.034435749 4294901498
0.23907971 -0.18598905 0.035196543 4294901499
0.23912907 -0.18420854 0.035213351 4294901500
0.23917842 -0.18242809 0.0352301 4294901501
0.23846668 -0.18094814 0.034503043 4294901502
0.23851603 -0.17916575 0.034519851 4294901502
0.23780459 -0.17768005 0.033792853 4294901502
0.23633242 -0.1764853 0.032322109 4294901502
0.23638195 -0.17469719 0.032338977 4294901502
0.23414928 -0.17378193 0.030124605 4294901502
0.23343831 -0.17227721 0.029397786 4294901502
0.23272747 -0.17076862 0.028670967 4294901502
0.23049551 -0.16982669 0.026456833 4294901502
0.22826391 -0.16887334 0.024242759 4294901502
0.22679317 -0.1676271 0.022772491 4294966782
0.2230413 -0.16721183 0.019071341 4294966782
0.22005033 -0.16649982 0.016114056 4294901502
0.21858042 -0.16522115 0.014644086 4294901502
0.21863121 -0.1633873 0.014661372 4294836222
0.21412081 -0.16318479 0.01021719 4294836222
0.21493214 -0.16106954 0.010978103 4294836222
0.23180503 -0.20525321 0.025982141 4287596400
0.23033339 -0.20409662 0.024507523 4293583819
0.23342615 -0.20101508 0.027507544 4294176213
0.23575783 -0.19826642 0.029761672 4294834401
0.2380892 -0.19552925 0.032015681 4294967020
0.23965979 -0.19311723 0.033523917 4294967281
0.23970914 -0.19133678 0.033540666 4294967034
0.23975849 -0.18955633 0.033557475 4294967036
0.24056816 -0.18746778 0.034319878 4294901754
0.24137777 -0.18538299 0.035082221 4294901500
0.241427 -0.18360636 0.03509903 4294901500
0.24147624 -0.18182972 0.035115778 4294901502
0.24152547 -0.18005309 0.035132527 4294901502
0.24157476 -0.17827639 0.035149336 4294901502
0.24086392 -0.17679644 0.03442055 4294901502
0.24015325 -0.17531261 0.033691823 4294901502
0.23944253 -0.17382506 0.032963157 4294901502
0.23797214 -0.17262462 0.031489015 4294901502
0.23650193 -0.17141652 0.030014873 4294901502
0.2357918 -0.16991368 0.029286385 4294901502
0.23432201 -0.16869226 0.027812421 4294901502
0.23209268 -0.16774648 0.025593162 4294901502
0.23138291 -0.16622654 0.024864793 4294901502
0.22839457 -0.16554123 0.021900296 4294901502
0.2246471 -0.16511828 0.018190622 4294901502
0.22317863 -0.16384923 0.016717136 4294901502
0.21943194 -0.16339391 0.01300776 4294901502
0.21948278 -0.16156012 0.013025045 4294836222
0.21573704 -0.16107619 0.0093159676 4294705150
0.23487067 -0.20428956 0.02660197 4290820258
0.23264068 -0.20346016 0.024376392 4294044116
0.23724979 -0.19974327 0.028878212 4294570973
0.23881888 -0.1973199 0.030389965 4294966761
0.24114764 -0.19458842 0.03264904 4294967024
0.24195665 -0.19249603 0.033413231 4294967028
0.24200588 -0.1907194 0.03342998 4294967033
0.24205512 -0.1889427 0.033446789 4294901500
0.24286383 -0.18685791 0.034210861 4294901500
0.24291307 -0.18508318 0.03422761 4294901500
0.24372166 -0.18300411 0.034991622 4294901502
0.24377078 -0.18123129 0.035008371 4294901502
0.24381995 -0.17945844 0.03502512 4294901502
0.24386907 -0.17768562 0.035041809 4294901502
0.243159 -0.17620948 0.034311295 4294901502
0.24244899 -0.1747295 0.03358078 4294901502
0.24249828 -0.17295286 0.033597589 4294901502
0.24102938 -0.17175809 0.032119989 4294901502
0.23956066 -0.1705558 0.03064239 4294901502
0.23885113 -0.16905865 0.029912114 4294901502
0.23738277 -0.16784298 0.028434634 4294901502
0.23515588 -0.16690299 0.026210189 4294901502
0.233688 -0.16567013 0.024732888 4294901502
0.23146158 -0.16470915 0.022508621 4294901502
0.22847682 -0.1640144 0.01953733 4294901502
0.22700977 -0.16275293 0.018060327 4294901502
0.22326714 -0.16230533 0.014342308 4294901502
0.22331774 -0.1604791 0.014359534 4294901502
0.23246765 -0.2109938 0.021936655 4285359194
0.23251754 -0.2091924 0.021953583 4285161555
0.23560429 -0.20608982 0.024967551 4287070057
0.23641312 -0.20397267 0.025733709 4293189059
0.23570371 -0.20250222 0.025001407 4294307795
0.23954856 -0.1991106 0.028764248 4294703069
0.24111599 -0.19669101 0.030279398 4294967278
0.24647778 -0.1927003 0.035540223 4294967028
0.24652672 -0.1909332 0.035556912 4294967033
0.24657571 -0.18916607 0.035573602 4294967033
0.24434841 -0.18832901 0.033342957 4294901754
0.24667364 -0.18563184 0.035606921 4294901502
0.24672264 -0.18386471 0.03562355 4294901500
0.24677157 -0.18209761 0.03564024 4294901502
0.24682057 -0.18033049 0.035656929 4294901502
0.2468695 -0.17856336 0.035673618 4294901502
0.24540168 -0.17739344 0.034192324 4294901502
0.24545074 -0.17562252 0.034209013 4294901502
0.24474144 -0.17414632 0.03347671 4294901502
0.24479061 -0.17237347 0.0334934 4294901502
0.24332327 -0.1711826 0.032012343 4294901502
0.24185616 -0.16998407 0.030531347 4294901502
0.24190551 -0.16820362 0.030548096 4294901502
0.23968059 -0.16727892 0.028318405 4294901502
0.23745602 -0.16634277 0.026088715 4294901502
0.23674768 -0.16483229 0.02535677 4294901502
0.23376572 -0.16415659 0.022378445 4294901502
0.23078418 -0.16346571 0.019400239 4294901502
0.23007649 -0.16193232 0.018668592 4294901502
0.22633791 -0.16149044 0.014941871 4294901502
0.22563064 -0.15994185 0.014210343 4294901502
0.22568113 -0.15811947 0.014227509 4294835967
0.23552972 -0.210013 0.022565246 4284898899
0.2333042 -0.20919886 0.020329237 4284569929
0.23638755 -0.20609626 0.02335012 4288715140
0.23719555 -0.2039791 0.024117947 4293649612
0.24027824 -0.2009013 0.027138531 4294176466
0.24260229 -0.19815829 0.029408097 4294834404
0.24720043 -0.19447377 0.033930182 4294966772
0.24876553 -0.19207513 0.035448551 4294967033
0.2488144 -0.19031182 0.035465181 4294967034
0.24886328 -0.18854854 0.035481811 4294967035
0.24815428 -0.18709522 0.034747601 4294901500
0.24820322 -0.18533003 0.03476429 4294901500
0.24825209 -0.18356481 0.03478092 4294901501
0.24830103 -0.18179959 0.034797549 4294901502
0.2491076 -0.17973199 0.035565019 4294901502
0.24915648 -0.17796868 0.035581589 4294901502
0.24920535 -0.17620537 0.035598278 4294901502
0.24925423 -0.17444208 0.035614848 4294901502
0.2493031 -0.17267877 0.035631537 4294901502
0.24707967 -0.17179412 0.033396244 4294901502
0.24637127 -0.17031604 0.032662272 4294901502
0.24490565 -0.16912329 0.031177759 4294901502
0.24419755 -0.16763571 0.030443847 4294901502
0.24197495 -0.16671485 0.028208911 4294901502
0.23975289 -0.16578251 0.025974035 4294901502
0.2390452 -0.16427585 0.025240362 4294901502
0.23682362 -0.16332451 0.023005664 4294901502
0.23460227 -0.16236162 0.020771086 4294901502
0.23389518 -0.16083598 0.020037591 4294901502
0.23091739 -0.16012791 0.01705277 4294901502
0.23096758 -0.15831694 0.017069817 4294901502
0.22647691 -0.15812603 0.012584269 4294901502
0.23631382 -0.21001947 0.020946026 4285228115
0.23636359 -0.20822376 0.020962954 4284635977
0.24020094 -0.20480153 0.024743319 4291281069
0.24100792 -0.202692 0.025512815 4293781460
0.24332958 -0.19994327 0.027787566 4294504925
0.24716574 -0.19656682 0.031567454 4294966509
0.24872935 -0.19416246 0.03308934 4294967029
0.2495355 -0.19208148 0.033858538 4294967034
0.25034165 -0.19000429 0.034627795 4294967034
0.25039047 -0.18824288 0.034644365 4294967036
0.25043929 -0.18648148 0.034660995 4294901500
0.2504881 -0.18472007 0.034677625 4294901500
0.24977988 -0.18326497 0.033941746 4294901502
0.25058573 -0.18119729 0.034710884 4294901502
0.25139135 -0.1791335 0.035479903 4294901502
0.25068337 -0.1776745 0.034744084 4294901502
0.25148892 -0.17561451 0.035513163 4294901502
0.25153768 -0.17385501 0.035529733 4294901502
0.25158644 -0.17209551 0.035546303 4294901502
0.25012195 -0.1709218 0.034058154 4294901502
0.24714458 -0.17032242 0.031065404 4294901502
0.24719363 -0.1685515 0.031082094 4294901502
0.24648625 -0.16706774 0.030346513 4294901502
0.24426615 -0.16615072 0.028106332 4294901502
0.24204636 -0.1652222 0.02586627 4294901502
0.2413395 -0.16371939 0.025130868 4294901502
0.23987645 -0.16249231 0.023643136 4294901502
0.23841363 -0.16125759 0.022155643 4294901502
0.23770732 -0.15973952 0.02142036 4294901502
0.23473257 -0.15903911 0.018428564 4294901502
0.23024637 -0.15886727 0.013932467 4294901502
0.23029661 -0.15705249 0.013949633 4294836222
0.23553443 -0.21248367 0.017801046 4285359953
0.23558432 -0.21068415 0.017818034 4285293647
0.23866117 -0.20757577 0.020852625 4285030728
0.24249423 -0.20415741 0.024641514 4291873451
0.24330038 -0.20205161 0.025412679 4293847245
0.24864572 -0.1980207 0.030709982 4294834149
0.24869472 -0.19625357 0.030726671 4294966767
0.2502566 -0.19385114 0.032251954 4294967026
0.25106198 -0.19177204 0.03302294 4294967034
0.25111079 -0.19001064 0.03303957 4294967034
0.25191587 -0.18793732 0.033810377 4294901754
0.25196463 -0.18617782 0.033826947 4294901500
0.25276965 -0.18411013 0.034597814 4294901502
0.25281835 -0.18235254 0.034614444 4294901502
0.2521109 -0.18089935 0.033876777 4294901502
0.2529158 -0.17883739 0.034647584 4294901502
0.25296444 -0.1770798 0.034664154 4294901502
0.25301319 -0.1753222 0.034680724 4294901502
0.25381774 -0.17326793 0.035451412 4294901502
0.25235474 -0.17210186 0.033959746 4294901502
0.25089186 -0.17092815 0.0324682 4294901502
0.24942929 -0.16974679 0.030976713 4294901502
0.24872261 -0.16826877 0.030239344 4294901502
0.24877167 -0.16649976 0.030256033 4294901502
0.2465539 -0.16558653 0.028010607 4294901502
0.24433655 -0.16466191 0.025765419 4294901502
0.24363035 -0.16316292 0.025028229 4294901502
0.24216896 -0.16193962 0.023537099 4294901502
0.2407077 -0.16070876 0.02204603 4294901502
0.24000198 -0.1591945 0.021309018 4294901502
0.23703057 -0.15849793 0.018310308 4294901502
0.23254919 -0.15832996 0.013803899 4294901502
0.23259938 -0.156519 0.013821006 4294836222
0.2363202 -0.21249014 0.01617837 4285556304
0.24468571 -0.20707029 0.024513006 4285358668
0.24246722 -0.20627335 0.022261381 4286542942
0.24931937 -0.2015613 0.029083252 4293056959
0.24936837 -0.1997942 0.029099882 4293846737
0.25017309 -0.19770557 0.029872656 4294702563
0.25097769 -0.19562078 0.03064537 4294967023
0.25178224 -0.19353977 0.031418085 4294967030
0.25258666 -0.19146261 0.032190681 4294967033
0.25263542 -0.18970311 0.032207251 4294901754
0.25343966 -0.18763161 0.032979846 4294901754
0.25424379 -0.18556404 0.033752441 4294901500
0.25429243 -0.18380836 0.033769011 4294901502
0.2550965 -0.18174639 0.034541488 4294901502
0.25514513 -0.17999262 0.034557998 4294901502
0.25519371 -0.17823884 0.034574509 4294901502
0.25524229 -0.17648506 0.034591079 4294901502
0.25529093 -0.17473131 0.034607649 4294901502
0.2553395 -0.17297754 0.034624219 4294901502
0.25387806 -0.17181337 0.033129096 4294901502
0.25241691 -0.17064157 0.031634092 4294901502
0.25095588 -0.16946217 0.030139089 4294901502
0.24949509 -0.16827515 0.028644204 4294901502
0.24803448 -0.16708049 0.02714932 4294901502
0.24808365 -0.16530764 0.027166069 4294901502
0.2466234 -0.16410157 0.025671363 4294901502
0.24591798 -0.16260639 0.024932384 4294901502
0.24445802 -0.16138694 0.023437858 4294901502
0.24299836 -0.16015986 0.021943331 4294901502
0.24229342 -0.15864944 0.021204531 4294901502
0.23932528 -0.15795672 0.018198907 4294901502
0.23484874 -0.15779257 0.013682127 4294901502
0.2311272 -0.15733561 0.0099211931 4294901502
0.22816044 -0.15659139 0.0069161057 4294770686
0.22821105 -0.15476707 0.0069333315 4294705150
0.23861641 -0.21183458 0.016071558 4285621581
0.24772769 -0.20608929 0.025182843 4285424202
0.25155216 -0.20268032 0.028988838 4286608990
0.25235611 -0.20059168 0.029763341 4293188289
0.25240499 -0.19883031 0.029779971 4293846736
0.25245374 -0.1970689 0.0297966 4294768099
0.25250262 -0.19530749 0.02981317 4294966764
0.25255138 -0.19354612 0.0298298 4294967030
0.25335497 -0.19146892 0.030604124 4294966777
0.25340372 -0.18970942 0.030620694 4294967034
0.25420713 -0.18763793 0.031395018 4294901754
0.25576508 -0.18526021 0.032927036 4294901754
0.25656819 -0.18319833 0.033701181 4294901502
0.25661677 -0.18144649 0.033717752 4294901503
0.25741976 -0.17939025 0.034491897 4294901502
0.25746828 -0.17764029 0.034508407 4294901502
0.2575168 -0.17589033 0.034524918 4294901502
0.25756526 -0.17414036 0.034541428 4294901502
0.2561053 -0.17298383 0.033042789 4294901502
0.25539964 -0.17152488 0.032301784 4294901502
0.25394011 -0.17035499 0.030803323 4294901502
0.25172663 -0.16946852 0.028547406 4294901502
0.25177556 -0.1677033 0.028563976 4294901502
0.25031656 -0.16651249 0.027065754 4294901502
0.24885774 -0.16531402 0.025567532 4294901502
0.24890691 -0.1635412 0.025584221 4294901502
0.2482022 -0.1620498 0.024843574 4294901502
0.24599016 -0.16111377 0.022588134 4294901502
0.24453205 -0.15988865 0.02109015 4294901502
0.24458152 -0.15810439 0.021106958 4294901502
0.24161655 -0.15741548 0.01809442 4294901502
0.23714489 -0.15725523 0.013567328 4294901502
0.23192042 -0.15734214 0.0082831383 4294836222
0.22895706 -0.15659794 0.0052710772 4294770687
0.22900766 -0.15477362 0.0052883029 4294705151
0.24166352 -0.21084788 0.016731143 4285950294
0.24171311 -0.2090579 0.016748071 4285687122
0.25232214 -0.20268667 0.027398884 4286608477
0.25312525 -0.200598 0.028175116 4293122496
0.25317413 -0.19883662 0.028191686 4293715149
0.25473106 -0.19643223 0.02972734 4294570973
0.2532717 -0.19531381 0.028224945 4294966507
0.25332052 -0.19355243 0.028241515 4294967028
0.25412327 -0.19147524 0.029017568 4294966778
0.25417203 -0.18971574 0.029034138 4294967034
0.2549746 -0.18764427 0.02981019 4294901754
0.25653088 -0.18526652 0.031345606 4294901500
0.25733316 -0.18320462 0.032121539 4294901502
0.25738174 -0.18145278 0.032138109 4294901502
0.2581839 -0.17939654 0.032913923 4294901502
0.25823241 -0.17764658 0.032930493 4294901502
0.25828093 -0.17589661 0.032946944 4294901502
0.25832939 -0.17414665 0.032963514 4294901502
0.25762445 -0.17269343 0.032220721 4294901502
0.25691974 -0.17123637 0.031477988 4294901502
0.25546169 -0.17006844 0.02997601 4294901502
0.25400394 -0.16889283 0.028474152 4294901502
0.25329953 -0.16742057 0.027731538 4294901502
0.25184214 -0.16623163 0.026229799 4294901502
0.25038499 -0.16503513 0.024728119 4294901502
0.249681 -0.16354758 0.023985624 4294901502
0.24973017 -0.16177472 0.024002373 4294901502
0.24752051 -0.1608406 0.021741748 4294901502
0.24606401 -0.15961739 0.020240307 4294901502
0.24611336 -0.15783504 0.020257115 4294901502
0.24315172 -0.15714809 0.017237663 4294901502
0.23793238 -0.15726173 0.011941254 4294901502
0.23196101 -0.1576187 0.0058859587 4294836221
0.22824842 -0.15714073 0.0021080971 4294639357
0.22829908 -0.1553126 0.0021253824 4294704895
0.24244505 -0.21085432 0.015117109 4285621329
0.2424947 -0.20906433 0.015133977 4286016341
0.25309211 -0.20269302 0.02580893 4286871649
0.25389439 -0.20060435 0.026586771 4293121982
0.25469649 -0.19851956 0.027364671 4293780937
0.25549853 -0.19643855 0.028142452 4294702300
0.254794 -0.19500056 0.027397871 4294966507
0.25484276 -0.19324109 0.027414441 4294967028
0.25489151 -0.19148159 0.027431011 4294967033
0.25494033 -0.18972209 0.027447641 4294967033
0.25574207 -0.18765059 0.028225422 4294901754
0.25579077 -0.18589303 0.028241992 4294901500
0.25734532 -0.18351907 0.029780746 4294901502
0.2581467 -0.18145907 0.030558407 4294901502
0.25819522 -0.1797072 0.030574918 4294901502
0.2582438 -0.1779553 0.030591488 4294901502
0.25829232 -0.17620343 0.030607939 4294901502
0.2583409 -0.17445156 0.030624509 4294901502
0.2576369 -0.17299643 0.029880047 4294901502
0.25768554 -0.17124265 0.029896617 4294901502
0.25622916 -0.17007476 0.028391182 4294901502
0.25402063 -0.16919023 0.026124954 4294901502
0.25406951 -0.16742691 0.026141584 4294901502
0.25336605 -0.1659508 0.025397301 4294901502
0.2511583 -0.16504148 0.023131251 4294901502
0.25045514 -0.16355395 0.022387028 4294901502
0.25050426 -0.1617811 0.022403836 4294901502
0.24829715 -0.16084701 0.020138025 4294901502
0.24684227 -0.1596238 0.018633187 4294901502
0.24613976 -0.1581172 0.017889202 4294901502
0.24318147 -0.15742835 0.014862895 4294901502
0.23871976 -0.1572682 0.01031518 4294901502
0.23200333 -0.15789524 0.0034854412 4294901757
0.24322671 -0.21086076 0.013503075 4285687377
0.2432763 -0.20907077 0.013520002 4285621582
0.25386208 -0.20269936 0.024218917 4286015570
0.25466353 -0.20061067 0.024998546 4292924089
0.2562173 -0.19820246 0.026541114 4293780420
0.25701839 -0.19612336 0.027320623 4294373074
0.25706702 -0.19436765 0.027337193 4294899683
0.25636339 -0.19292971 0.026590824 4294966510
0.25641209 -0.19117212 0.026607394 4294967028
0.25646085 -0.18941453 0.026623964 4294967287
0.25726163 -0.18734494 0.027403474 4294901754
0.25806248 -0.18527913 0.028182864 4294901500
0.25886309 -0.18321723 0.028962255 4294901500
0.25891167 -0.18146539 0.028978765 4294901502
0.25896019 -0.17971352 0.028995275 4294901502
0.25900877 -0.17796162 0.029011846 4294901502
0.25905734 -0.17620975 0.029028296 4294901502
0.25910586 -0.17445788 0.029044867 4294901502
0.25840271 -0.17300275 0.028298676 4294901502
0.25845134 -0.17124897 0.028315187 4294901502
0.25699663 -0.17008108 0.026806355 4294901502
0.25554222 -0.1689055 0.025297642 4294901502
0.25559103 -0.16714406 0.025314271 4294901502
0.2548883 -0.16566995 0.0245682 4294901502
0.25343436 -0.16447723 0.023059666 4294901502
0.25198066 -0.16327691 0.021551132 4294901502
0.24977577 -0.16235045 0.019280076 4294901502
0.249825 -0.16057381 0.019296885 4294901502
0.24762058 -0.15963021 0.017026007 4294901502
0.24616772 -0.15839937 0.015517831 4294901502
0.2439639 -0.15743479 0.013247132 4294836222
0.23875624 -0.15754661 0.0079267025 4294836222
0.23204726 -0.15817189 0.0010814667 4294835967
0.24325651 -0.21119824 0.011124313 4285556048
0.25007236 -0.20644394 0.018023849 4285424203
0.25388032 -0.20303294 0.021864235 4285094467
0.25543267 -0.20061702 0.02341032 4291674021
0.25698477 -0.19820878 0.024956286 4293582534
0.25853664 -0.19580811 0.026502252 4294307029
0.25858527 -0.19405434 0.026518762 4294965733
0.25863391 -0.19230059 0.026535332 4294966765
0.25868249 -0.19054681 0.026551843 4294967028
0.25797963 -0.18910694 0.025803804 4294966777
0.2587797 -0.18703926 0.026584983 4294967033
0.25882828 -0.18528545 0.026601493 4294901754
0.25887692 -0.1835317 0.026618004 4294901501
0.2589255 -0.18177792 0.026634574 4294901500
0.25897413 -0.18002415 0.026651144 4294901499
0.25977373 -0.17796791 0.027432144 4294901503
0.25907129 -0.17651659 0.026684165 4294901502
0.25911993 -0.17476285 0.026700735 4294901502
0.25916851 -0.17300907 0.026717305 4294901502
0.25846618 -0.17155012 0.025969386 4294901502
0.25851482 -0.16979447 0.025985956 4294901502
0.25856352 -0.16803879 0.026002526 4294901502
0.25786155 -0.16657221 0.025254726 4294901502
0.25715959 -0.16510183 0.024506927 4294901502
0.2549566 -0.16419828 0.022230566 4294901502
0.254255 -0.16271648 0.021482944 4294901502
0.251302 -0.16207534 0.018442392 4294901502
0.25135118 -0.16030058 0.018459082 4294901502
0.24839884 -0.15963662 0.015418828 4294901502
0.24769801 -0.15813002 0.014671445 4294836222
0.24474639 -0.15744123 0.01163137 4294836222
0.24029469 -0.15728119 0.0070630312 4294836222
0.23359323 -0.15790835 0.00020235777 4294770687
0.24328792 -0.21153575 0.008742094 4285358158
0.25084734 -0.20645031 0.016423583 4285621332
0.25465113 -0.20303929 0.020272493 4285554770
0.25545084 -0.20094872 0.021055579 4289897357
0.25775224 -0.1982151 0.023371458 4293253310
0.25855166 -0.196136 0.024154425 4294043342
0.25860029 -0.19438028 0.024170995 4294636508
0.25939971 -0.19230688 0.024953961 4294900200
0.25944829 -0.1905531 0.024970531 4294967027
0.25949687 -0.18879932 0.024987042 4294966778
0.25954551 -0.18704554 0.025003552 4294967034
0.2588436 -0.18560192 0.024253845 4294901753
0.25889224 -0.18384624 0.024270415 4294901500
0.25894088 -0.18209055 0.024286926 4294901502
0.25898951 -0.18033487 0.024303496 4294901500
0.25903821 -0.17857915 0.024320066 4294966782
0.25908685 -0.1768235 0.024336636 4294901502
0.25913554 -0.17506781 0.024353147 4294901502
0.25918418 -0.17331213 0.024369717 4294901502
0.25923282 -0.17155644 0.024386287 4294901502
0.25928146 -0.16980079 0.024402857 4294901502
0.25933015 -0.1680451 0.024419427 4294901502
0.25862902 -0.16657853 0.023669839 4294901502
0.25717813 -0.16539535 0.022154331 4294901502
0.25497764 -0.16448995 0.019872785 4294901502
0.25427693 -0.16300628 0.019123435 4294901502
0.25132734 -0.16236326 0.016076088 4294901502
0.25137657 -0.16058663 0.016092777 4294901502
0.24842763 -0.15992072 0.013045728 4294901502
0.24772757 -0.15841222 0.012296617 4294901502
0.24552882 -0.15744767 0.010015607 4294836222
0.24033278 -0.1575596 0.0046710968 4294835967
0.23588675 -0.1573748 9.2625618e-05 4294573566
0.24407119 -0.21154222 0.0071245432 4285161291
0.2441209 -0.20974842 0.0071414709 4285094985
0.25542194 -0.20304564 0.018680811 4284896837
0.25622082 -0.20095506 0.019465685 4287265639
0.2592696 -0.197898 0.022554755 4292594869
0.26081812 -0.19549921 0.024107575 4293779913
0.2608667 -0.19374734 0.024124086 4294372562
0.26091522 -0.19199547 0.024140596 4294899428
0.26171356 -0.18992779 0.024925232 4294966509
0.26101238 -0.18849173 0.024173677 4294967031
0.26106089 -0.18673986 0.024190187 4294967033
0.26035988 -0.18529806 0.023438752 4294967288
0.26040852 -0.18354431 0.023455262 4294901754
0.25895804 -0.18240312 0.02193588 4294901502
0.25975615 -0.18034118 0.022720397 4294901502
0.25980484 -0.17858547 0.022736967 4294967036
0.25985348 -0.17682981 0.022753537 4294901502
0.25990218 -0.17507413 0.022770047 4294901502
0.26070011 -0.17302167 0.023554564 4294901502
0.25999945 -0.17156276 0.022803187 4294901502
0.26004809 -0.16980711 0.022819757 4294901502
0.26009679 -0.16805142 0.022836328 4294901502
0.25939649 -0.16658485 0.022085071 4294901502
0.25794727 -0.1654017 0.020566106 4294901502
0.25574923 -0.1644963 0.018279433 4294901502
0.25430053 -0.16329601 0.016760588 4294901502
0.25210315 -0.16236964 0.014474034 4294901502
0.25215238 -0.160593 0.014490843 4294901502
0.24995542 -0.15964943 0.012204528 4294901502
0.24925619 -0.15814283 0.011453629 4294835967
0.24631125 -0.15745416 0.0083998442 4294835967
0.24186957 -0.15729415 0.0038108826 4294835967
0.23967403 -0.15630102 0.0015250444 4294770687
0.24560386 -0.21121755 0.0062770247 4285227857
0.24565351 -0.20942566 0.0062938929 4285292879
0.25619268 -0.20305198 0.017089128 4285424204
0.25774008 -0.20063603 0.018645525 4285423432
0.26003623 -0.19790432 0.020971656 4290950046
0.26158309 -0.1955055 0.022527933 4293187777
0.26163167 -0.19375363 0.022544384 4294109132
0.26242924 -0.19168401 0.023330748 4294701786
0.26322663 -0.18961823 0.024116993 4294965476
0.26252621 -0.18818411 0.023363769 4294966767
0.26257473 -0.18643415 0.02338028 4294967028
0.26187444 -0.18499428 0.022627056 4294967033
0.26117432 -0.18355063 0.021873891 4294901753
0.2612229 -0.18179682 0.021890402 4294901754
0.26127154 -0.18004307 0.021906972 4294901500
0.26132011 -0.17828926 0.021923542 4294901500
0.26136869 -0.17653552 0.021940053 4294901502
0.26141733 -0.17478177 0.021956623 4294901502
0.26146591 -0.17302796 0.021973133 4294901502
0.26151454 -0.17127421 0.021989703 4294901502
0.26081473 -0.16981342 0.021236658 4294901502
0.26086342 -0.16805774 0.021253228 4294901502
0.26016396 -0.16659117 0.020500183 4294901502
0.25796813 -0.16569531 0.018208325 4294901502
0.25577283 -0.16478801 0.015916526 4294901502
0.25432575 -0.16358581 0.014394224 4294901502
0.25213093 -0.16265756 0.012102604 4294901502
0.25218028 -0.16087899 0.012119412 4294836222
0.24998587 -0.1599336 0.0098279715 4294836222
0.24928749 -0.15842506 0.0090754032 4294835967
0.24634594 -0.15773445 0.0060147047 4294705151
0.24340475 -0.15702859 0.002954185 4294705151
0.24713475 -0.21089295 0.0054328442 4285754458
0.25242376 -0.20679864 0.010851026 4285885016
0.25621504 -0.20338562 0.014725864 4285752915
0.25776076 -0.20096776 0.016285658 4285554507
0.26005459 -0.19823405 0.018617034 4287659111
0.26159984 -0.19583333 0.020176709 4292266159
0.26239663 -0.19375995 0.020964742 4293451459
0.26319337 -0.1916903 0.021752834 4294371534
0.26324183 -0.18994036 0.021769285 4294767836
0.26329035 -0.1881904 0.021785855 4294966251
0.26259083 -0.18675247 0.021030903 4294967282
0.2626394 -0.1850006 0.021047413 4294967035
0.26194012 -0.18355691 0.020292521 4294901753
0.26124078 -0.1821095 0.019537628 4294901752
0.26203734 -0.18004936 0.020325601 4294901752
0.26208591 -0.17829558 0.020342112 4294901502
0.26213449 -0.17654181 0.020358682 4294901501
0.26143545 -0.17508677 0.019603848 4294901502
0.26148409 -0.17333108 0.019620419 4294901502
0.26153272 -0.1715754 0.019636989 4294901502
0.26083398 -0.17011267 0.018882275 4294901502
0.26088268 -0.16835505 0.018898845 4294901502
0.26018399 -0.16688666 0.01814419 4294901502
0.2579909 -0.16598889 0.015847087 4294901502
0.25579804 -0.16507971 0.013550162 4294901502
0.25435263 -0.16387561 0.012024522 4294901502
0.25141323 -0.16322702 0.0089565516 4294836222
0.25146264 -0.16144463 0.0089733601 4294901759
0.25001794 -0.16021767 0.007447958 4294770687
0.24932051 -0.15870732 0.0066936612 4294639358
0.2463823 -0.15801483 0.0036261082 4294705151
0.24419135 -0.15703505 0.0013297796 4294770687
0.24642104 -0.21156156 0.0022721291 4285622872
0.24647075 -0.20976776 0.0022890568 4285492055
0.25698668 -0.20339197 0.013132453 4285427545
0.25853068 -0.20097408 0.014695704 4285031758
0.26082206 -0.19824037 0.017032206 4285292105
0.26236564 -0.19583964 0.018595338 4290685589
0.26241428 -0.19408587 0.018611908 4292857525
0.26321018 -0.19201437 0.01940167 4293779141
0.26400596 -0.18994665 0.020191371 4294635223
0.26405448 -0.18819669 0.020207882 4294833890
0.264103 -0.18644673 0.020224392 4294966507
0.26415151 -0.18469673 0.020240903 4294967029
0.26345295 -0.18325502 0.019484282 4294967287
0.26350147 -0.18150318 0.019500792 4294901753
0.26355004 -0.17975131 0.019517303 4294901753
0.26359856 -0.17799941 0.019533873 4294901754
0.26290029 -0.17654812 0.018777311 4294901500
0.26294893 -0.17479438 0.018793881 4294901500
0.26225072 -0.17333737 0.018037319 4294901502
0.26229936 -0.17158169 0.018053889 4294901502
0.26085478 -0.17041194 0.016524434 4294901502
0.26015699 -0.16894352 0.015768051 4294901502
0.26020581 -0.16718209 0.01578474 4294901502
0.25801516 -0.16628247 0.013482511 4294901502
0.25582486 -0.16537139 0.011180401 4294901502
0.2543813 -0.16416547 0.0096513033 4294901502
0.25219148 -0.16323343 0.0073493719 4294836222
0.2522409 -0.16145104 0.0073661804 4294705150
0.25005174 -0.16050184 0.0050644875 4294705150
0.24935502 -0.15898955 0.0043084621 4294705151
0.24642032 -0.15829518 0.0012341738 4294705151
0.25173485 -0.20779905 0.0053219199 4286084193
0.25701159 -0.20372564 0.010764003 4286282086
0.25855404 -0.20130581 0.012330711 4285623127
0.26158953 -0.19824669 0.015447378 4285159751
0.26238483 -0.19616756 0.016238928 4286078541
0.26243347 -0.19441184 0.016255498 4290947990
0.26322871 -0.19233841 0.017047048 4292792246
0.26402366 -0.19026878 0.017838478 4293648325
0.26407224 -0.18851691 0.017855048 4294174926
0.26486713 -0.18645301 0.018646479 4294833888
0.26491565 -0.18470302 0.01866293 4294966507
0.26496416 -0.18295306 0.0186795 4294967283
0.26501262 -0.1812031 0.018695951 4294967287
0.26431501 -0.1797576 0.01793766 4294967033
0.26361752 -0.17830819 0.01717937 4294967287
0.26292002 -0.17685506 0.016421139 4294901754
0.26296872 -0.17509937 0.01643765 4294901500
0.26227146 -0.17364049 0.015679479 4294901500
0.26232022 -0.1718829 0.015696049 4294901502
0.26236892 -0.17012531 0.015712619 4294901502
0.26167184 -0.16865879 0.014954507 4294901502
0.26097494 -0.16718841 0.014196515 4294901502
0.25953245 -0.16600159 0.012663722 4294901502
0.2573446 -0.16509244 0.010356426 4294901502
0.25590259 -0.16388837 0.0088238716 4294836222
0.2537154 -0.16295823 0.0065168142 4294836222
0.25376469 -0.16117778 0.0065336227 4294770687
0.2508325 -0.16050828 0.0034521818 4294770687
0.24939138 -0.15927181 0.0019198656 4294770687
0.25102121 -0.20846382 0.0021612644 4286676075
0.25629216 -0.20438656 0.0076153278 4286216295
0.25857896 -0.20163754 0.0099623203 4285362013
0.26086539 -0.19889998 0.012309194 4285229140
0.26165992 -0.19681701 0.013102412 4284371263
0.26245445 -0.19473782 0.01389575 4286277974
0.26324874 -0.19266251 0.014688969 4291344801
0.26329738 -0.19090682 0.014705539 4292989879
0.26409167 -0.18883717 0.015498757 4293451197
0.26488572 -0.18677136 0.016291857 4294241235
0.2649343 -0.18501949 0.016308427 4294899685
0.26498288 -0.18326762 0.016324937 4294965995
0.2650314 -0.18151578 0.016341448 4294966770
0.26433474 -0.18006828 0.015581489 4294967030
0.26363802 -0.17861703 0.01482147 4294967034
0.26294154 -0.17716196 0.014061511 4294901754
0.26299024 -0.17540437 0.014078081 4294901754
0.26229388 -0.17394361 0.013318181 4294901500
0.26234263 -0.17218411 0.013334751 4294901500
0.26239139 -0.17042461 0.013351381 4294901502
0.26169527 -0.16895619 0.0125916 4294901502
0.26099914 -0.16748399 0.01183182 4294901502
0.25955844 -0.16629517 0.01029563 4294901502
0.25737315 -0.16538414 0.0079832077 4294836222
0.25667751 -0.16389474 0.0072236061 4294836222
0.25449282 -0.16296467 0.0049114227 4294836222
0.25454217 -0.16118422 0.0049282312 4294770429
0.25086868 -0.16079241 0.0010635853 4294705150
0.25860554 -0.20196933 0.0075904131 4285691234
0.26237947 -0.19858283 0.011499286 4285558621
0.26317316 -0.19650173 0.012294292 4285096787
0.26396674 -0.19442448 0.013089299 4284832332
0.26401538 -0.19266883 0.013105869 4287331181
0.26406401 -0.19091314 0.013122439 4290949787
0.26485747 -0.18884349 0.013917327 4292332200
0.26639539 -0.18646562 0.015490532 4293385155
0.26644391 -0.18471563 0.015507102 4294240726
0.26649243 -0.18296567 0.015523553 4294438877
0.26579636 -0.18152207 0.014761806 4294702311
0.26510054 -0.1800746 0.014000058 4294900462
0.26440465 -0.17862335 0.01323837 4294966520
0.26296461 -0.1774689 0.011698484 4294966778
0.26301336 -0.17570943 0.011715055 4294967034
0.26306218 -0.17394993 0.011731684 4294901500
0.26311094 -0.17219043 0.011748254 4294901502
0.26315969 -0.17043093 0.011764884 4294770429
0.2624644 -0.16896251 0.011003375 4294835709
0.26176912 -0.16749033 0.010241866 4294967295
0.26033002 -0.16630155 0.0087022781 4294967295
0.25889117 -0.16510516 0.0071627498 4294901503
0.25819635 -0.1636177 0.0064014196 4294835711
0.25601405 -0.16268954 0.0040839911 4294836222
0.25606334 -0.16091096 0.0041007996 4294901759
0.25714535 -0.20295188 0.0036547184 4286020712
0.26165944 -0.19923615 0.0083524585 4285756771
0.26394063 -0.19650808 0.010709524 4285229145
0.26398939 -0.19475049 0.010726094 4285425242
0.26403803 -0.19299293 0.010742664 4284832848
0.26483065 -0.19091946 0.01153934 4286608742
0.26562327 -0.18884978 0.012336016 4290358930
0.26641566 -0.18678397 0.013132572 4291937960
0.26646423 -0.1850321 0.013149142 4292333232
0.26651281 -0.18328023 0.013165593 4293123010
0.2658177 -0.18183467 0.012402177 4293846744
0.26512259 -0.18038538 0.011638701 4294175969
0.26442772 -0.17893222 0.010875285 4294505452
0.26298946 -0.17777586 0.0093320608 4294966520
0.26303828 -0.17601445 0.0093486309 4294967033
0.26383048 -0.17395625 0.010145128 4294966778
0.26313591 -0.17249167 0.0093818903 4294967293
0.26244134 -0.17102325 0.0086185932 4294835707
0.26174694 -0.16955104 0.0078554153 4294901502
0.26105267 -0.16807503 0.0070921779 4294835709
0.26035857 -0.16659519 0.0063290596 4294901503
0.25966448 -0.16511154 0.0055658817 4294901247
0.2589705 -0.16362408 0.0048028231 4294901247
0.25604773 -0.16297743 0.0017005205 4294441464
0.25609708 -0.16119698 0.001717329 4289178024
0.25945616 -0.20053652 0.0036349893 4285691237
0.26173502 -0.19780079 0.0059972405 4285361503
0.26252711 -0.19571587 0.006795764 4285492063
0.26257598 -0.19395259 0.0068123937 4285426271
0.2641111 -0.1915575 0.0083925724 4284767575
0.26490295 -0.18948406 0.0091910362 4286082919
0.26569462 -0.18741441 0.0099893808 4289635739
0.26574326 -0.18565875 0.010005951 4291213998
0.26579195 -0.18390307 0.010022521 4292135100
0.2650978 -0.18245369 0.0092573166 4293056973
0.2644037 -0.18100056 0.0084922314 4293123279
0.26445246 -0.17924106 0.0085088015 4293649627
0.2637586 -0.17778218 0.0077437162 4294373098
0.26306468 -0.17631951 0.0069787502 4294308077
0.26311356 -0.17455623 0.0069953203 4294571252
0.26241994 -0.17308781 0.0062303543 4294768889
0.26172638 -0.1716156 0.0054653883 4294769403
0.26029056 -0.17043069 0.0039190054 4294900990
0.25959724 -0.16894895 0.003154099 4294967039
0.25964636 -0.16717613 0.0031708479 4294900991
0.25895321 -0.16568863 0.0024060011 4294440953
0.25826025 -0.16419742 0.0016412735 4291282889
0.26102096 -0.19845036 0.0028384328 4285625447
0.26181233 -0.1963616 0.0036386847 4285624679
0.26334596 -0.19395894 0.0052224398 4286149996
0.26413721 -0.19187972 0.0060225725 4285557605
0.26492816 -0.18980435 0.0068227053 4284109647
0.26646125 -0.18742073 0.0084062815 4284767573
0.26650989 -0.18566507 0.0084228516 4286609261
0.26655859 -0.18390939 0.0084394217 4288254342
0.26660722 -0.1821537 0.0084559321 4290359716
0.26591396 -0.18070242 0.0076891184 4292333252
0.26596266 -0.17894486 0.0077056885 4293649629
0.26526952 -0.17748788 0.0069388747 4293912548
0.26457649 -0.17602712 0.0061721206 4294176490
0.26388353 -0.17456257 0.0054053664 4294439663
0.26319075 -0.17309415 0.0046386719 4294571508
0.26175636 -0.17191496 0.0030887127 4294440692
0.26106381 -0.17043704 0.0023220778 4293321957
0.26037139 -0.16895533 0.0015555024 4291150787
0.25967902 -0.16746977 0.00078904629 4288255898
0.25898677 -0.16598043 2.2530556e-05 4283782484
0.2626819 -0.19283372 0.0020785332 4286347886
0.26347232 -0.1907526 0.0028804541 4286018664
0.26500392 -0.18836322 0.0044676065 4285623650
0.26579398 -0.18629169 0.005269289 4284767827
0.26584274 -0.1845322 0.0052859187 4283846472
0.26663274 -0.18246633 0.0060876608 4282990910
0.26594031 -0.18101323 0.0053191185 4283517254
0.26598907 -0.17925373 0.0053356886 4284438355
0.26455575 -0.17809552 0.0037821531 4285228640
0.26312268 -0.17692965 0.0022286177 4286083952
0.26243079 -0.17545941 0.0014601946 4285689194
0.26173896 -0.17398527 0.00069189072 4285689202
0.26355153 -0.18930587 0.0005185008 4287663746
0.26434094 -0.18722853 0.001322031 4286939510
0.26438987 -0.18546334 0.0013387203 4286018408
0.26443881 -0.18369812 0.0013554096 4284504399
0.26374739 -0.18223742 0.0005851984 4283451710
0.33596689 0.36474678 0.000395298 4289373576
0.33811116 0.3655102 0.0029039383 4289438343
0.33605963 0.36809421 0.00042682886 4289241479
0.33953798 0.36520076 0.0022325516 4288978306
0.34026551 0.36519477 0.00073027611 4289439115
0.32915485 -0.31641889 0.0011882782 4287137142
0.32920045 -0.31477183 0.001203835 4287071349
0.3292461 -0.31312484 0.0012193918 4287992451
0.38549238 0.37737367 0.0068523884 4287990648
0.38553625 0.37895778 0.0068673491 4287859576
0.38199669 0.35035118 0.00079381466 4290360478
0.3820408 0.35194483 0.00080883503 4289965720
0.38342607 0.37711132 0.0019212961 4288450941
0.3861841 0.37736797 0.0054240227 4288319356
0.38622802 0.37895209 0.0054389238 4288056955
0.38691974 0.37894639 0.0040105581 4288056954
0.3791613 -0.34631211 0.0061136484 4286215267
0.37920439 -0.34475657 0.0061283112 4286347108
0.37984055 -0.34631768 0.0047110319 4286149730
0.37988365 -0.34476215 0.0047256947 4286347365
